VERSION 0.7
FIELDS x y z rgba
SIZE 4 4 4 4
TYPE F F F U
COUNT 1 1 1 1
WIDTH 2290
HEIGHT 1
VIEWPOINT 0 0 0 1 0 0 0
POINTS 2290
DATA ascii
1.55 8.56 3.61 4294967295
0.52 0.94 4.09 4294967295
0.24 8.69 7.82 4294967295
8.65 9.62 0.83 4294967295
5.98 8.73 6.13 4294967295
8.47 9.40 2.77 4294967295
8.49 9.39 2.71 4294967295
5.33 3.05 6.82 4294967295
1.83 7.64 2.75 4294967295
5.99 8.63 6.14 4294967295
5.64 0.68 6.47 4294967295
5.97 8.73 6.13 4294967295
1.66 9.80 0.80 4294967295
0.53 0.94 4.11 4294967295
5.65 0.75 6.52 4294967295
6.30 3.28 5.05 4294967295
5.66 0.66 6.52 4294967295
0.54 0.97 4.16 4294967295
8.69 9.55 0.83 4294967295
1.72 9.75 0.80 4294967295
1.27 3.40 6.14 4294967295
5.39 3.02 6.79 4294967295
5.39 3.07 6.76 4294967295
1.26 3.41 6.15 4294967295
3.58 3.49 4.33 4294967295
1.68 4.81 2.49 4294967295
5.94 8.66 6.10 4294967295
3.52 3.54 4.39 4294967295
5.31 3.05 6.76 4294967295
8.50 9.40 2.70 4294967295
0.78 3.04 4.27 4294967295
5.62 0.70 6.47 4294967295
8.50 9.41 2.70 4294967295
0.22 8.63 7.80 4294967295
8.51 9.35 2.73 4294967295
6.02 8.67 6.12 4294967295
3.51 3.53 4.39 4294967295
1.23 3.36 6.12 4294967295
9.79 3.04 3.98 4294967295
1.26 3.40 6.13 4294967295
5.38 3.09 6.80 4294967295
0.16 8.67 7.87 4294967295
4.69 0.10 3.12 4294967295
1.80 7.69 2.80 4294967295
2.11 4.78 7.63 4294967295
0.47 0.99 4.16 4294967295
0.47 0.98 4.10 4294967295
1.89 7.68 2.76 4294967295
5.31 3.05 6.81 4294967295
4.65 0.13 3.15 4294967295
8.54 9.37 2.72 4294967295
6.29 3.26 5.10 4294967295
2.62 9.75 2.40 4294967295
8.53 9.42 2.71 4294967295
5.38 3.07 6.74 4294967295
2.07 4.72 7.68 4294967295
0.84 3.05 4.22 4294967295
1.72 9.75 0.74 4294967295
4.75 0.15 3.14 4294967295
8.66 9.63 0.82 4294967295
0.18 8.68 7.87 4294967295
4.71 0.11 3.20 4294967295
6.27 3.25 5.01 4294967295
2.62 9.78 2.50 4294967295
6.23 3.30 5.05 4294967295
5.39 3.08 6.78 4294967295
1.68 9.82 0.77 4294967295
6.09 7.07 5.95 4294967295
8.69 9.64 0.82 4294967295
0.23 8.64 7.80 4294967295
3.53 3.47 4.38 4294967295
1.73 9.75 0.80 4294967295
9.81 3.02 4.02 4294967295
1.55 8.55 3.56 4294967295
1.74 9.80 0.79 4294967295
9.87 3.03 4.00 4294967295
4.67 0.09 3.17 4294967295
5.93 8.65 6.11 4294967295
1.88 7.70 2.78 4294967295
1.69 9.77 0.72 4294967295
1.85 7.71 2.72 4294967295
8.46 9.39 2.73 4294967295
5.96 8.63 6.11 4294967295
0.20 8.64 7.78 4294967295
0.83 3.01 4.29 4294967295
1.84 7.73 2.75 4294967295
5.31 3.03 6.79 4294967295
0.54 1.00 4.13 4294967295
5.31 3.03 6.75 4294967295
8.66 9.56 0.83 4294967295
1.53 8.64 3.57 4294967295
6.09 7.09 6.04 4294967295
0.53 0.93 4.15 4294967295
6.29 3.24 5.03 4294967295
4.71 0.09 3.19 4294967295
5.37 3.10 6.78 4294967295
8.48 9.39 2.71 4294967295
1.21 3.35 6.13 4294967295
6.24 3.22 5.08 4294967295
4.68 0.17 3.15 4294967295
5.66 0.66 6.50 4294967295
2.11 4.76 7.63 4294967295
8.51 9.37 2.71 4294967295
3.52 3.54 4.33 4294967295
1.85 7.65 2.74 4294967295
3.52 3.54 4.33 4294967295
9.79 3.01 4.01 4294967295
6.30 3.24 5.07 4294967295
6.21 3.24 5.06 4294967295
9.80 3.05 4.00 4294967295
0.19 8.69 7.87 4294967295
6.22 3.29 5.07 4294967295
6.27 3.26 5.11 4294967295
1.81 7.67 2.81 4294967295
6.29 3.22 5.08 4294967295
8.54 9.42 2.71 4294967295
0.16 8.65 7.80 4294967295
3.59 3.51 4.38 4294967295
1.65 9.78 0.78 4294967295
2.12 4.81 7.70 4294967295
6.06 7.12 5.99 4294967295
8.72 9.56 0.83 4294967295
0.53 0.94 4.17 4294967295
1.79 7.68 2.76 4294967295
6.06 7.07 6.00 4294967295
6.06 7.13 5.99 4294967295
2.62 9.72 2.43 4294967295
0.24 8.68 7.83 4294967295
8.70 9.58 0.76 4294967295
6.23 3.23 5.03 4294967295
3.50 3.48 4.35 4294967295
0.52 1.00 4.12 4294967295
8.54 9.36 2.75 4294967295
0.49 0.93 4.17 4294967295
8.53 9.37 2.79 4294967295
8.73 9.57 0.78 4294967295
1.69 9.73 0.79 4294967295
5.93 8.65 6.11 4294967295
5.39 3.04 6.76 4294967295
6.15 7.08 5.99 4294967295
1.72 9.78 0.73 4294967295
1.65 4.83 2.49 4294967295
5.67 0.67 6.54 4294967295
8.71 9.56 0.84 4294967295
6.06 7.07 6.01 4294967295
2.10 4.72 7.71 4294967295
5.34 3.10 6.80 4294967295
1.68 9.82 0.76 4294967295
2.62 9.81 2.46 4294967295
5.31 3.07 6.80 4294967295
8.72 9.56 0.83 4294967295
9.84 3.06 3.96 4294967295
1.80 7.68 2.73 4294967295
0.81 3.07 4.22 4294967295
8.64 9.57 0.81 4294967295
8.53 9.42 2.79 4294967295
9.81 2.99 3.93 4294967295
0.82 3.06 4.31 4294967295
2.10 4.71 7.69 4294967295
0.51 1.01 4.15 4294967295
5.39 3.02 6.78 4294967295
0.51 0.94 4.09 4294967295
6.24 3.31 5.05 4294967295
9.80 3.00 3.93 4294967295
1.52 8.59 3.64 4294967295
0.24 8.67 7.84 4294967295
6.10 7.09 6.04 4294967295
1.23 3.40 6.14 4294967295
8.65 9.62 0.83 4294967295
3.57 3.53 4.33 4294967295
9.84 3.06 3.97 4294967295
3.57 3.48 4.39 4294967295
8.69 9.57 0.85 4294967295
6.05 7.10 6.01 4294967295
8.53 9.44 2.73 4294967295
2.63 9.77 2.40 4294967295
8.72 9.56 0.83 4294967295
0.18 8.66 7.88 4294967295
6.12 7.11 5.95 4294967295
0.52 0.92 4.13 4294967295
5.61 0.70 6.55 4294967295
1.80 7.70 2.80 4294967295
1.68 4.80 2.46 4294967295
1.23 3.37 6.12 4294967295
0.84 3.07 4.22 4294967295
5.38 3.03 6.81 4294967295
1.79 7.67 2.78 4294967295
5.98 8.64 6.16 4294967295
8.46 9.39 2.75 4294967295
2.15 4.74 7.70 4294967295
1.84 7.64 2.74 4294967295
1.68 4.77 2.46 4294967295
4.71 0.12 3.11 4294967295
5.36 3.06 6.83 4294967295
0.81 3.02 4.30 4294967295
4.71 0.09 3.12 4294967295
5.35 3.10 6.76 4294967295
1.59 4.78 2.46 4294967295
4.66 0.11 3.17 4294967295
2.63 9.71 2.46 4294967295
