VERSION 0.7
FIELDS x y z rgba
SIZE 4 4 4 4
TYPE F F F U
COUNT 1 1 1 1
WIDTH 2290
HEIGHT 1
VIEWPOINT 0 0 0 1 0 0 0
POINTS 2290
DATA ascii
2.67 7.47 9.00 4294967295
8.75 3.82 7.92 4294967295
5.88 1.63 1.95 4294967295
8.80 3.88 7.94 4294967295
5.89 1.66 1.88 4294967295
1.44 1.63 8.94 4294967295
8.61 1.72 8.80 4294967295
7.98 2.08 9.82 4294967295
6.82 0.62 4.24 4294967295
4.01 9.94 1.44 4294967295
4.67 3.42 4.83 4294967295
6.83 0.62 4.15 4294967295
6.86 0.65 4.19 4294967295
4.99 1.60 8.81 4294967295
8.84 3.81 7.93 4294967295
7.77 5.37 9.98 4294967295
2.60 7.45 8.99 4294967295
6.80 0.59 4.17 4294967295
3.18 0.42 5.89 4294967295
4.01 3.97 8.99 4294967295
3.12 0.37 5.87 4294967295
8.57 1.74 8.85 4294967295
1.91 8.34 3.13 4294967295
8.62 1.71 8.90 4294967295
7.78 5.35 9.99 4294967295
5.47 6.98 5.49 4294967295
4.63 3.36 4.83 4294967295
9.02 7.91 3.12 4294967295
4.00 3.96 8.95 4294967295
4.05 4.01 8.91 4294967295
5.02 1.58 8.82 4294967295
3.81 4.54 8.40 4294967295
7.97 2.07 9.77 4294967295
5.90 1.66 1.87 4294967295
5.95 1.67 1.88 4294967295
3.85 4.19 1.69 4294967295
3.85 4.19 1.71 4294967295
7.90 2.11 9.80 4294967295
2.64 7.51 8.99 4294967295
8.98 7.97 3.18 4294967295
9.00 7.93 3.21 4294967295
3.86 4.13 1.70 4294967295
3.11 0.43 5.89 4294967295
4.06 9.94 1.48 4294967295
4.67 3.42 4.82 4294967295
8.60 1.66 8.85 4294967295
5.44 6.99 5.43 4294967295
8.83 3.86 7.94 4294967295
6.81 0.68 4.19 4294967295
7.93 2.12 9.83 4294967295
7.98 2.08 9.83 4294967295
3.14 0.40 5.81 4294967295
8.96 7.95 3.13 4294967295
4.63 3.36 4.80 4294967295
3.87 4.55 8.44 4294967295
3.81 4.52 8.39 4294967295
7.84 5.41 9.96 4294967295
3.81 4.53 8.42 4294967295
3.84 4.50 8.36 4294967295
6.80 0.60 4.16 4294967295
6.85 0.64 4.23 4294967295
8.80 3.79 7.91 4294967295
8.60 1.76 8.85 4294967295
1.88 8.30 3.22 4294967295
4.04 9.91 1.46 4294967295
8.76 3.86 7.95 4294967295
9.04 7.93 3.16 4294967295
3.90 4.52 8.38 4294967295
6.79 0.66 4.17 4294967295
5.92 1.67 1.87 4294967295
1.93 8.27 3.19 4294967295
6.79 0.66 4.16 4294967295
5.94 1.62 1.89 4294967295
5.03 1.58 8.80 4294967295
3.99 3.97 8.96 4294967295
1.94 8.28 3.17 4294967295
4.09 9.93 1.47 4294967295
4.94 1.52 8.81 4294967295
7.81 5.33 10.01 4294967295
4.94 1.53 8.82 4294967295
2.61 7.48 9.07 4294967295
8.66 1.69 8.84 4294967295
1.41 1.65 8.98 4294967295
2.67 7.44 9.01 4294967295
2.63 7.48 9.08 4294967295
7.97 2.07 9.77 4294967295
4.07 3.97 8.94 4294967295
4.04 7.83 1.10 4294967295
7.96 2.12 9.78 4294967295
4.04 4.03 8.99 4294967295
4.04 7.86 1.14 4294967295
8.61 1.68 8.81 4294967295
8.95 7.90 3.14 4294967295
8.61 1.71 8.80 4294967295
2.67 7.49 9.01 4294967295
5.95 1.68 1.95 4294967295
2.61 7.52 9.03 4294967295
4.04 3.96 8.93 4294967295
4.06 9.99 1.43 4294967295
4.05 9.93 1.48 4294967295
8.64 1.70 8.89 4294967295
3.18 0.44 5.84 4294967295
4.08 9.94 1.48 4294967295
2.66 7.43 9.01 4294967295
5.93 1.71 1.93 4294967295
6.86 0.64 4.21 4294967295
4.06 7.88 1.09 4294967295
7.79 5.33 9.97 4294967295
5.44 6.96 5.41 4294967295
9.00 7.96 3.13 4294967295
1.91 8.35 3.15 4294967295
4.68 3.32 4.83 4294967295
6.77 0.61 4.22 4294967295
4.04 7.83 1.10 4294967295
5.93 1.70 1.94 4294967295
4.64 5.52 9.86 4294967295
7.80 5.41 9.99 4294967295
9.01 7.88 3.14 4294967295
4.03 7.88 1.06 4294967295
4.64 5.55 9.93 4294967295
5.48 6.98 5.45 4294967295
3.18 0.41 5.90 4294967295
1.42 1.67 9.01 4294967295
5.49 6.95 5.45 4294967295
7.80 5.33 9.97 4294967295
3.85 4.15 1.69 4294967295
1.46 1.63 9.02 4294967295
8.96 7.93 3.20 4294967295
4.07 9.99 1.41 4294967295
9.00 7.96 3.19 4294967295
3.83 4.56 8.40 4294967295
5.92 1.62 1.89 4294967295
1.41 1.65 8.98 4294967295
7.89 2.08 9.82 4294967295
1.93 8.34 3.15 4294967295
5.47 6.97 5.43 4294967295
3.84 4.53 8.45 4294967295
4.65 5.56 9.87 4294967295
3.89 4.48 8.39 4294967295
6.77 0.65 4.21 4294967295
4.07 4.00 8.98 4294967295
3.98 7.85 1.06 4294967295
2.64 7.45 8.99 4294967295
4.00 7.82 1.09 4294967295
2.63 7.48 9.08 4294967295
4.95 1.52 8.80 4294967295
7.81 5.40 10.01 4294967295
3.11 0.41 5.82 4294967295
3.11 0.39 5.83 4294967295
3.14 0.39 5.81 4294967295
3.98 4.00 8.93 4294967295
2.67 7.49 9.06 4294967295
8.66 1.73 8.85 4294967295
5.02 1.58 8.82 4294967295
3.18 0.41 5.90 4294967295
7.99 2.08 9.81 4294967295
2.66 7.45 9.06 4294967295
8.85 3.83 7.94 4294967295
8.98 7.88 3.13 4294967295
1.41 1.63 8.99 4294967295
4.67 5.47 9.91 4294967295
8.61 1.66 8.83 4294967295
4.11 9.92 1.43 4294967295
7.98 2.09 9.83 4294967295
7.83 5.37 10.03 4294967295
5.89 1.64 1.95 4294967295
7.82 5.35 9.93 4294967295
8.76 3.87 7.94 4294967295
2.63 7.43 9.00 4294967295
8.57 1.68 8.87 4294967295
3.92 4.19 1.75 4294967295
2.64 7.52 9.05 4294967295
7.95 2.13 9.80 4294967295
1.43 1.62 8.99 4294967295
5.02 1.52 8.83 4294967295
5.94 1.66 1.97 4294967295
8.60 1.70 8.90 4294967295
8.78 3.80 7.90 4294967295
3.98 7.86 1.07 4294967295
8.56 1.71 8.84 4294967295
5.91 1.69 1.88 4294967295
3.11 0.43 5.87 4294967295
4.05 7.88 1.07 4294967295
5.46 6.93 5.42 4294967295
5.44 6.95 5.42 4294967295
4.68 3.42 4.83 4294967295
4.03 9.97 1.46 4294967295
8.84 3.81 7.93 4294967295
4.02 4.01 8.90 4294967295
4.69 5.50 9.94 4294967295
3.94 4.16 1.72 4294967295
5.01 1.52 8.83 4294967295
5.47 6.99 5.46 4294967295
4.98 1.52 8.84 4294967295
8.57 1.69 8.83 4294967295
8.98 7.93 3.11 4294967295
4.00 3.97 8.97 4294967295
8.75 3.81 7.93 4294967295
3.88 4.19 1.75 4294967295
4.66 3.41 4.85 4294967295
