VERSION 0.7
FIELDS x y z rgba
SIZE 4 4 4 4
TYPE F F F U
COUNT 1 1 1 1
WIDTH 175
HEIGHT 1
VIEWPOINT 0 0 0 1 0 0 0
POINTS 175
DATA ascii
2.89 2.79 6.31 4294967295
9.33 0.12 0.55 4294967295
2.91 2.74 6.28 4294967295
5.52 2.26 0.01 4294967295
2.91 2.74 6.29 4294967295
6.14 4.04 2.45 4294967295
8.94 7.77 7.02 4294967295
0.46 7.97 3.1 4294967295
5.53 2.24 0.01 4294967295
3.17 0.71 6.79 4294967295
3.14 0.67 6.8 4294967295
6.88 5.71 2.97 4294967295
9.28 0.09 0.57 4294967295
8.88 7.81 6.98 4294967295
7.56 9.31 3.52 4294967295
8.15 9.32 5.76 4294967295
8.85 7.79 7.0 4294967295
4.43 1.28 9.81 4294967295
6.96 5.72 2.91 4294967295
8.58 0.85 3.82 4294967295
6.41 4.32 4.89 4294967295
7.59 9.37 3.45 4294967295
5.83 0.3 5.71 4294967295
5.33 2.85 5.59 4294967295
5.36 2.87 5.53 4294967295
4.45 1.23 9.87 4294967295
5.54 2.27 -0.03 4294967295
8.56 0.82 3.84 4294967295
1.1 6.6 5.36 4294967295
7.61 9.39 3.5 4294967295
5.81 1.55 9.45 4294967295
6.42 4.3 4.88 4294967295
6.21 4.07 2.47 4294967295
6.91 5.76 2.9 4294967295
2.89 2.79 6.29 4294967295
5.85 0.33 5.72 4294967295
7.6 9.3 3.48 4294967295
9.87 4.17 4.77 4294967295
1.1 6.67 5.42 4294967295
5.76 0.31 5.74 4294967295
5.57 2.26 -0.03 4294967295
1.14 6.66 5.4 4294967295
8.14 9.34 5.7 4294967295
6.87 5.72 2.95 4294967295
1.1 6.68 5.41 4294967295
1.07 6.67 5.4 4294967295
8.58 0.86 3.82 4294967295
8.19 9.34 5.72 4294967295
5.81 0.31 5.69 4294967295
9.32 0.12 0.56 4294967295
9.86 4.18 4.79 4294967295
6.5 4.3 4.89 4294967295
8.86 7.74 6.97 4294967295
2.93 2.73 6.3 4294967295
5.39 2.91 5.56 4294967295
0.48 7.92 3.09 4294967295
7.6 9.33 3.54 4294967295
1.06 6.65 5.39 4294967295
8.19 9.26 5.73 4294967295
2.9 2.74 6.3 4294967295
5.79 0.39 5.73 4294967295
9.35 0.09 0.6 4294967295
8.57 0.88 3.82 4294967295
8.16 9.31 5.67 4294967295
5.56 2.27 0.06 4294967295
6.44 4.34 4.94 4294967295
6.13 4.07 2.45 4294967295
6.14 4.03 2.5 4294967295
9.91 4.22 4.82 4294967295
6.49 4.35 4.91 4294967295
3.16 0.67 6.82 4294967295
4.39 1.28 9.84 4294967295
8.87 7.81 7.01 4294967295
5.31 2.87 5.59 4294967295
8.21 9.29 5.73 4294967295
6.5 4.32 4.88 4294967295
5.6 2.24 0.0 4294967295
6.44 4.35 4.88 4294967295
8.6 0.81 3.88 4294967295
3.12 0.75 6.82 4294967295
7.57 9.3 3.5 4294967295
6.18 4.1 2.53 4294967295
5.6 2.26 0.05 4294967295
9.34 0.04 0.59 4294967295
5.39 2.86 5.58 4294967295
1.11 6.59 5.38 4294967295
3.11 0.74 6.83 4294967295
9.9 4.23 4.73 4294967295
1.13 6.66 5.34 4294967295
0.44 7.96 3.06 4294967295
3.17 0.67 6.82 4294967295
6.18 4.04 2.53 4294967295
1.11 6.59 5.39 4294967295
6.14 4.06 2.54 4294967295
6.14 4.05 2.53 4294967295
2.96 2.79 6.34 4294967295
4.46 1.3 9.89 4294967295
8.12 9.31 5.74 4294967295
6.93 5.74 2.98 4294967295
8.61 0.88 3.9 4294967295
6.16 4.02 2.48 4294967295
9.36 0.11 0.56 4294967295
6.93 5.7 2.97 4294967295
6.14 4.03 2.52 4294967295
1.07 6.66 5.42 4294967295
8.64 0.88 3.86 4294967295
9.88 4.24 4.73 4294967295
6.14 4.03 2.52 4294967295
9.93 4.21 4.74 4294967295
5.87 1.55 9.45 4294967295
0.46 7.98 3.09 4294967295
3.1 0.71 6.86 4294967295
5.62 2.26 0.03 4294967295
8.21 9.29 5.72 4294967295
5.82 1.62 9.5 4294967295
2.97 2.81 6.27 4294967295
8.19 9.34 5.74 4294967295
6.5 4.32 4.88 4294967295
9.9 4.18 4.74 4294967295
9.37 0.06 0.58 4294967295
0.46 8.0 3.06 4294967295
6.16 4.06 2.44 4294967295
6.47 4.28 4.87 4294967295
4.42 1.29 9.9 4294967295
6.9 5.68 2.92 4294967295
1.06 6.63 5.4 4294967295
3.15 0.74 6.79 4294967295
9.91 4.2 4.73 4294967295
5.85 1.63 9.48 4294967295
6.48 4.35 4.88 4294967295
4.47 1.27 9.89 4294967295
5.39 2.9 5.6 4294967295
2.96 2.8 6.26 4294967295
8.85 7.78 6.97 4294967295
1.1 6.67 5.34 4294967295
5.79 0.29 5.72 4294967295
8.55 0.84 3.89 4294967295
0.47 7.97 3.01 4294967295
9.85 4.24 4.78 4294967295
2.93 2.82 6.31 4294967295
1.13 6.62 5.34 4294967295
2.92 2.78 6.34 4294967295
9.3 0.12 0.54 4294967295
0.5 7.97 3.1 4294967295
8.55 0.87 3.88 4294967295
8.17 9.26 5.69 4294967295
7.62 9.37 3.47 4294967295
8.57 0.82 3.9 4294967295
7.59 9.35 3.55 4294967295
5.85 1.57 9.52 4294967295
5.78 0.34 5.68 4294967295
6.96 5.71 2.96 4294967295
5.81 1.62 9.47 4294967295
6.15 4.11 2.52 4294967295
6.95 5.73 2.9 4294967295
9.86 4.17 4.77 4294967295
5.61 2.28 -0.02 4294967295
9.29 0.05 0.57 4294967295
3.17 0.68 6.86 4294967295
6.92 5.72 2.98 4294967295
8.12 9.31 5.71 4294967295
5.78 0.31 5.7 4294967295
8.85 7.79 6.98 4294967295
2.91 2.74 6.31 4294967295
6.44 4.3 4.95 4294967295
6.11 4.06 2.49 4294967295
8.6 0.9 3.86 4294967295
0.48 7.98 3.1 4294967295
8.91 7.8 6.98 4294967295
5.83 1.59 9.52 4294967295
2.94 2.79 6.25 4294967295
7.54 9.35 3.5 4294967295
5.85 1.59 9.42 4294967295
6.13 4.09 2.46 4294967295
3.11 0.68 6.85 4294967295
