VERSION 0.7
FIELDS x y z rgba
SIZE 4 4 4 4
TYPE F F F U
COUNT 1 1 1 1
WIDTH 1829
HEIGHT 1
VIEWPOINT 0 0 0 1 0 0 0
POINTS 1829
DATA ascii
8.94 6.71 -0.55 4294967295
8.29 2.41 9.02 4294967295
5.16 8.59 2.30 4294967295
5.45 10.10 2.31 4294967295
8.70 1.21 9.80 4294967295
9.10 2.95 9.99 4294967295
3.28 4.25 6.17 4294967295
8.85 2.32 10.44 4294967295
8.08 3.08 0.98 4294967295
3.30 4.31 4.57 4294967295
8.62 2.81 10.00 4294967295
5.09 8.58 1.63 4294967295
5.73 10.05 1.29 4294967295
4.60 4.76 5.97 4294967295
4.96 9.34 2.44 4294967295
8.63 2.77 0.49 4294967295
6.21 9.57 1.04 4294967295
8.38 2.27 0.48 4294967295
3.38 3.55 5.40 4294967295
9.99 1.82 9.15 4294967295
6.75 9.26 1.60 4294967295
4.59 4.64 4.73 4294967295
8.23 2.51 0.53 4294967295
7.74 2.69 1.60 4294967295
5.31 8.49 1.46 4294967295
8.00 1.87 1.90 4294967295
8.57 7.10 -0.81 4294967295
7.74 7.38 0.17 4294967295
4.84 9.49 1.67 4294967295
9.80 1.38 9.37 4294967295
5.81 10.25 1.92 4294967295
6.43 9.48 2.63 4294967295
7.74 7.48 0.05 4294967295
8.54 2.24 2.39 4294967295
6.77 9.05 1.90 4294967295
8.59 1.31 9.13 4294967295
9.65 7.02 0.17 4294967295
8.72 2.14 0.46 4294967295
8.21 2.60 0.56 4294967295
5.63 8.76 1.03 4294967295
9.50 3.00 1.40 4294967295
5.28 8.55 1.39 4294967295
9.68 2.35 1.49 4294967295
4.71 4.09 4.97 4294967295
8.76 1.98 8.57 4294967295
9.42 6.74 0.36 4294967295
8.28 1.54 9.72 4294967295
6.05 8.90 0.99 4294967295
9.75 2.68 9.04 4294967295
9.96 1.89 9.04 4294967295
9.10 1.54 1.18 4294967295
6.29 8.43 1.64 4294967295
8.72 2.90 2.29 4294967295
9.06 7.90 -0.70 4294967295
8.48 1.30 9.51 4294967295
8.30 1.51 9.29 4294967295
9.30 3.09 1.01 4294967295
5.61 9.67 1.00 4294967295
3.73 3.89 6.22 4294967295
8.23 2.33 9.07 4294967295
3.92 5.42 5.46 4294967295
7.86 2.14 0.93 4294967295
8.15 1.93 0.72 4294967295
3.66 5.39 5.50 4294967295
9.22 1.12 9.74 4294967295
7.73 2.63 1.61 4294967295
9.62 7.69 0.51 4294967295
4.80 9.19 1.72 4294967295
2.97 3.99 5.32 4294967295
4.81 4.39 5.07 4294967295
3.98 5.37 5.66 4294967295
4.99 9.02 2.45 4294967295
8.29 2.60 9.21 4294967295
8.50 2.18 0.47 4294967295
6.62 9.77 2.07 4294967295
7.78 7.57 -0.11 4294967295
4.02 5.26 5.90 4294967295
8.65 1.53 0.95 4294967295
4.43 4.24 4.58 4294967295
8.05 8.15 0.14 4294967295
4.55 3.70 5.50 4294967295
9.47 1.18 9.27 4294967295
6.50 9.94 1.71 4294967295
4.57 5.08 5.65 4294967295
9.42 6.70 0.23 4294967295
2.93 4.20 5.65 4294967295
8.60 6.98 1.00 4294967295
3.99 5.41 5.46 4294967295
9.72 1.56 8.92 4294967295
8.61 6.81 -0.66 4294967295
3.55 3.48 5.34 4294967295
8.29 7.11 -0.72 4294967295
3.84 5.28 5.90 4294967295
8.60 6.44 0.23 4294967295
3.78 5.42 5.38 4294967295
3.39 4.14 4.55 4294967295
9.48 3.02 1.36 4294967295
4.70 4.96 5.28 4294967295
5.64 10.15 1.48 4294967295
9.36 3.08 1.75 4294967295
9.57 2.12 1.77 4294967295
6.14 9.83 1.15 4294967295
6.13 9.48 2.80 4294967295
9.68 2.78 9.08 4294967295
3.53 4.67 6.29 4294967295
5.96 9.35 2.87 4294967295
5.89 10.18 1.52 4294967295
9.60 1.73 8.72 4294967295
8.09 2.85 2.09 4294967295
8.25 6.60 -0.16 4294967295
7.81 7.52 -0.23 4294967295
8.72 1.52 0.98 4294967295
9.60 7.76 0.50 4294967295
2.94 4.76 5.19 4294967295
8.66 6.98 -0.77 4294967295
8.90 7.18 -0.84 4294967295
8.75 7.20 -0.85 4294967295
8.55 1.75 10.28 4294967295
3.82 4.41 4.38 4294967295
8.65 2.33 10.36 4294967295
8.97 7.58 -0.84 4294967295
8.30 8.32 0.18 4294967295
9.76 1.34 9.47 4294967295
5.12 8.77 1.33 4294967295
8.47 1.30 9.51 4294967295
9.69 1.81 8.75 4294967295
5.48 9.49 2.81 4294967295
2.94 4.35 5.01 4294967295
6.62 9.20 2.45 4294967295
9.45 2.29 10.42 4294967295
9.69 2.69 8.98 4294967295
9.32 2.26 2.18 4294967295
8.21 1.81 0.78 4294967295
4.51 4.56 6.13 4294967295
4.17 5.07 4.68 4294967295
4.89 9.70 1.86 4294967295
8.07 6.96 -0.47 4294967295
3.01 4.23 5.86 4294967295
9.39 7.97 0.64 4294967295
5.06 8.57 1.85 4294967295
6.70 9.45 2.25 4294967295
8.78 1.46 1.72 4294967295
8.68 1.17 9.51 4294967295
9.10 1.65 10.41 4294967295
8.62 1.87 0.58 4294967295
8.36 8.05 0.80 4294967295
8.02 1.68 1.30 4294967295
8.68 1.80 2.21 4294967295
9.20 8.26 0.42 4294967295
6.51 9.56 2.51 4294967295
9.50 2.15 0.90 4294967295
3.32 5.13 5.83 4294967295
6.47 9.65 2.50 4294967295
6.27 10.12 1.98 4294967295
3.92 4.10 6.33 4294967295
9.85 2.30 8.89 4294967295
6.66 9.65 2.16 4294967295
9.05 7.08 1.00 4294967295
9.26 7.17 -0.69 4294967295
6.00 9.89 2.63 4294967295
6.24 8.90 2.71 4294967295
8.06 3.10 1.05 4294967295
9.50 1.84 1.45 4294967295
9.33 7.63 0.90 4294967295
4.27 4.88 6.17 4294967295
4.00 5.32 4.96 4294967295
6.41 8.67 2.41 4294967295
8.50 8.38 0.27 4294967295
9.29 6.91 -0.54 4294967295
8.15 1.57 1.49 4294967295
6.66 9.71 1.71 4294967295
6.34 10.08 1.89 4294967295
9.27 6.61 0.37 4294967295
9.98 2.52 9.36 4294967295
8.48 3.30 1.84 4294967295
7.87 7.86 0.34 4294967295
4.82 9.38 1.66 4294967295
9.41 2.97 9.84 4294967295
7.76 7.22 0.20 4294967295
8.96 1.61 1.94 4294967295
6.60 9.02 1.35 4294967295
7.80 7.08 0.06 4294967295
9.44 7.28 -0.57 4294967295
6.18 9.49 2.78 4294967295
8.61 3.06 2.18 4294967295
3.13 5.10 5.39 4294967295
3.25 3.64 5.43 4294967295
2.91 4.57 5.14 4294967295
3.99 3.54 5.84 4294967295
3.02 4.66 5.85 4294967295
8.68 1.51 0.99 4294967295
9.76 1.68 8.87 4294967295
8.79 2.99 9.77 4294967295
8.91 1.74 8.58 4294967295
9.09 2.79 0.59 4294967295
8.54 8.30 0.55 4294967295
9.05 2.77 8.78 4294967295
8.53 2.77 0.50 4294967295
8.61 3.23 1.99 4294967295
6.46 8.67 1.43 4294967295
9.35 6.68 -0.15 4294967295
8.30 1.60 9.14 4294967295
3.82 5.39 5.63 4294967295
9.59 2.12 1.74 4294967295
8.88 3.03 2.18 4294967295
9.14 2.08 8.50 4294967295
6.29 10.06 2.21 4294967295
8.75 7.72 -0.83 4294967295
6.76 9.43 1.76 4294967295
8.62 1.46 1.70 4294967295
4.71 4.02 5.74 4294967295
5.90 8.50 1.23 4294967295
4.37 3.58 5.58 4294967295
8.21 2.53 9.64 4294967295
5.53 8.51 2.51 4294967295
9.95 1.62 9.24 4294967295
9.62 7.83 -0.12 4294967295
3.99 3.44 5.54 4294967295
8.26 7.56 0.99 4294967295
4.65 4.91 4.99 4294967295
6.01 10.11 1.43 4294967295
9.77 2.30 8.80 4294967295
6.35 8.95 2.66 4294967295
9.41 3.01 9.70 4294967295
3.23 4.54 6.15 4294967295
9.41 1.14 9.41 4294967295
3.44 3.73 5.97 4294967295
5.53 9.11 0.93 4294967295
4.57 4.28 4.68 4294967295
8.96 1.64 1.99 4294967295
3.09 5.01 5.61 4294967295
8.86 7.20 -0.85 4294967295
3.96 4.33 4.39 4294967295
9.08 1.27 8.92 4294967295
5.36 8.42 2.22 4294967295
9.29 1.76 1.88 4294967295
9.23 7.32 0.98 4294967295
8.68 6.43 0.07 4294967295
9.23 2.42 2.26 4294967295
3.20 5.17 5.39 4294967295
9.54 7.86 0.53 4294967295
9.93 2.47 9.11 4294967295
8.63 7.14 1.07 4294967295
5.99 10.13 1.45 4294967295
8.57 1.97 2.31 4294967295
6.31 10.10 1.79 4294967295
8.57 6.44 0.12 4294967295
9.03 1.92 2.22 4294967295
9.74 1.39 9.18 4294967295
3.87 5.41 5.23 4294967295
8.37 2.77 9.51 4294967295
8.29 1.55 9.25 4294967295
8.57 2.92 9.67 4294967295
9.42 1.19 9.18 4294967295
4.48 3.65 5.21 4294967295
4.76 4.33 4.94 4294967295
6.45 9.21 2.64 4294967295
8.98 8.30 0.54 4294967295
8.13 2.70 0.64 4294967295
8.37 6.72 -0.49 4294967295
5.52 9.95 1.22 4294967295
9.08 3.23 1.00 4294967295
3.53 5.33 5.62 4294967295
6.03 9.33 2.85 4294967295
6.57 9.33 1.28 4294967295
4.25 3.54 5.10 4294967295
8.72 1.47 1.09 4294967295
8.37 6.80 -0.57 4294967295
9.53 2.87 1.71 4294967295
5.25 9.37 1.05 4294967295
9.48 6.79 0.34 4294967295
8.12 2.94 2.05 4294967295
8.25 2.17 8.97 4294967295
3.47 4.17 4.49 4294967295
3.73 5.09 6.11 4294967295
8.57 7.58 1.09 4294967295
9.17 1.86 10.48 4294967295
7.97 2.25 0.74 4294967295
9.01 2.27 0.48 4294967295
8.72 3.01 9.55 4294967295
8.99 1.09 9.59 4294967295
3.95 3.48 5.07 4294967295
9.20 7.85 -0.66 4294967295
6.11 9.77 2.68 4294967295
9.25 1.77 8.57 4294967295
8.95 2.52 8.62 4294967295
3.01 4.64 5.84 4294967295
8.17 2.23 9.17 4294967295
9.56 1.22 9.73 4294967295
8.35 8.24 0.55 4294967295
5.58 9.56 0.96 4294967295
9.24 2.92 2.08 4294967295
4.80 4.69 5.63 4294967295
3.73 4.35 4.39 4294967295
6.12 8.42 2.32 4294967295
5.35 8.35 1.88 4294967295
4.94 9.41 2.39 4294967295
8.24 2.22 10.00 4294967295
4.94 9.69 1.58 4294967295
8.46 2.46 0.45 4294967295
8.39 2.45 8.89 4294967295
5.94 10.24 1.94 4294967295
8.72 1.45 1.68 4294967295
8.15 7.15 0.88 4294967295
3.38 4.05 6.17 4294967295
8.13 1.59 1.48 4294967295
9.09 2.33 8.54 4294967295
9.92 1.76 9.04 4294967295
5.51 10.17 1.62 4294967295
8.10 2.66 0.64 4294967295
6.45 9.89 1.49 4294967295
6.16 9.32 2.82 4294967295
8.84 2.85 10.08 4294967295
4.73 4.07 5.03 4294967295
10.08 1.98 9.35 4294967295
8.32 3.08 2.07 4294967295
8.01 2.18 2.12 4294967295
4.16 3.64 4.83 4294967295
3.53 3.76 4.71 4294967295
9.08 1.24 8.97 4294967295
8.53 6.64 0.71 4294967295
8.57 8.21 0.72 4294967295
8.83 7.25 -0.86 4294967295
9.17 1.35 8.82 4294967295
6.33 8.46 1.63 4294967295
3.65 5.34 5.70 4294967295
5.30 10.06 2.22 4294967295
8.95 1.09 9.51 4294967295
8.59 2.13 10.36 4294967295
9.05 1.30 10.13 4294967295
9.88 1.98 10.12 4294967295
2.88 4.53 5.54 4294967295
9.30 1.78 1.89 4294967295
3.05 4.82 5.81 4294967295
7.72 2.48 1.68 4294967295
6.00 8.42 1.38 4294967295
6.37 9.46 1.10 4294967295
6.27 8.38 1.85 4294967295
10.01 1.69 9.46 4294967295
5.87 8.26 1.86 4294967295
5.71 10.24 1.72 4294967295
9.17 6.78 0.75 4294967295
8.45 8.19 -0.45 4294967295
4.55 5.08 5.09 4294967295
3.74 4.42 6.37 4294967295
5.66 10.24 1.76 4294967295
8.54 1.52 1.00 4294967295
8.53 2.80 9.09 4294967295
7.85 2.84 1.75 4294967295
9.28 2.05 0.70 4294967295
3.43 4.20 6.25 4294967295
3.77 4.17 4.42 4294967295
5.27 8.63 2.48 4294967295
3.37 3.56 5.51 4294967295
8.23 1.54 1.56 4294967295
7.83 7.04 0.26 4294967295
6.52 9.06 1.23 4294967295
5.30 10.11 1.76 4294967295
9.70 7.46 0.38 4294967295
8.97 6.84 0.90 4294967295
8.01 1.80 1.01 4294967295
9.23 1.37 10.19 4294967295
9.53 2.36 0.89 4294967295
3.59 3.92 4.56 4294967295
8.69 2.75 10.13 4294967295
7.95 7.95 0.44 4294967295
9.67 2.37 1.27 4294967295
4.58 3.85 4.98 4294967295
7.84 7.14 0.46 4294967295
9.05 1.08 9.59 4294967295
6.09 9.82 2.65 4294967295
9.38 7.61 -0.62 4294967295
5.82 9.98 2.58 4294967295
8.11 7.56 0.88 4294967295
8.41 2.40 2.38 4294967295
3.67 3.45 5.29 4294967295
8.37 7.08 0.99 4294967295
9.05 2.66 8.69 4294967295
8.04 2.68 0.70 4294967295
8.38 6.53 -0.14 4294967295
8.97 2.45 2.38 4294967295
9.84 1.54 9.90 4294967295
8.50 2.03 0.51 4294967295
4.07 4.90 4.53 4294967295
4.87 9.63 1.76 4294967295
8.46 1.68 10.16 4294967295
8.88 1.12 9.32 4294967295
9.52 2.09 1.87 4294967295
4.58 3.85 4.98 4294967295
9.37 6.65 0.15 4294967295
3.92 4.09 4.44 4294967295
3.39 3.58 5.64 4294967295
4.15 4.79 6.26 4294967295
5.16 9.74 2.50 4294967295
8.29 2.47 2.33 4294967295
8.23 1.58 9.56 4294967295
4.09 4.15 6.32 4294967295
3.62 3.54 4.97 4294967295
6.02 8.75 2.72 4294967295
4.04 5.21 5.97 4294967295
8.37 1.51 9.11 4294967295
8.94 7.57 -0.85 4294967295
8.79 1.65 0.78 4294967295
8.44 3.38 1.54 4294967295
9.14 2.60 2.29 4294967295
5.69 8.30 1.60 4294967295
8.88 2.21 2.38 4294967295
4.10 3.78 6.11 4294967295
8.61 1.69 0.74 4294967295
8.61 3.41 1.45 4294967295
8.42 1.71 8.86 4294967295
5.05 8.77 2.37 4294967295
7.91 2.91 1.82 4294967295
3.21 3.71 5.13 4294967295
3.68 4.48 4.40 4294967295
3.92 5.06 6.15 4294967295
3.67 4.41 4.40 4294967295
8.99 2.23 8.52 4294967295
8.82 6.65 -0.51 4294967295
8.41 2.00 8.78 4294967295
8.06 2.16 0.68 4294967295
2.93 4.38 5.72 4294967295
9.24 8.03 0.73 4294967295
9.37 6.77 0.55 4294967295
8.91 8.32 0.53 4294967295
4.21 3.88 4.62 4294967295
3.45 5.14 5.95 4294967295
9.50 2.99 9.57 4294967295
6.60 8.83 2.30 4294967295
7.87 1.83 1.37 4294967295
9.54 2.69 10.16 4294967295
8.95 7.42 1.10 4294967295
5.36 9.58 1.05 4294967295
2.95 4.82 5.42 4294967295
5.48 8.52 1.28 4294967295
8.73 1.88 10.41 4294967295
4.62 4.51 6.03 4294967295
9.01 6.46 0.17 4294967295
8.24 7.46 -0.75 4294967295
8.62 1.76 0.66 4294967295
9.81 2.74 9.27 4294967295
9.25 2.32 2.24 4294967295
9.82 2.69 9.83 4294967295
3.71 3.65 4.76 4294967295
9.80 1.46 9.15 4294967295
4.53 5.14 5.58 4294967295
3.98 5.35 5.03 4294967295
9.06 2.63 2.32 4294967295
5.28 10.11 1.93 4294967295
9.50 1.95 1.07 4294967295
4.03 3.79 4.62 4294967295
8.80 8.35 0.48 4294967295
8.11 1.92 9.44 4294967295
5.85 8.44 1.31 4294967295
8.90 2.38 10.44 4294967295
8.71 8.38 0.40 4294967295
8.01 1.68 1.32 4294967295
6.45 8.85 2.52 4294967295
9.35 6.70 -0.20 4294967295
3.20 4.87 4.79 4294967295
6.14 8.55 1.27 4294967295
5.13 9.48 1.17 4294967295
4.79 9.20 1.98 4294967295
3.59 5.25 4.89 4294967295
3.67 3.94 4.53 4294967295
9.58 2.62 1.03 4294967295
8.63 8.00 0.93 4294967295
8.90 1.87 0.61 4294967295
9.66 2.40 1.19 4294967295
8.71 2.40 2.42 4294967295
4.36 3.61 5.07 4294967295
9.43 2.52 0.77 4294967295
3.70 3.46 5.62 4294967295
7.83 2.39 1.93 4294967295
8.10 2.03 9.49 4294967295
8.33 6.51 0.17 4294967295
9.08 2.56 0.51 4294967295
5.96 8.35 1.50 4294967295
9.30 2.15 0.68 4294967295
6.74 8.96 2.01 4294967295
8.17 6.71 -0.29 4294967295
8.73 8.42 0.18 4294967295
4.81 9.43 1.96 4294967295
5.43 9.50 0.99 4294967295
8.24 2.51 9.23 4294967295
6.62 9.80 1.96 4294967295
3.42 3.55 5.59 4294967295
5.34 9.90 2.51 4294967295
8.92 8.19 0.74 4294967295
4.67 4.14 5.91 4294967295
3.63 4.29 6.34 4294967295
5.71 8.32 1.54 4294967295
3.40 5.31 5.39 4294967295
9.92 2.60 9.72 4294967295
3.74 5.41 5.47 4294967295
8.15 1.76 9.51 4294967295
8.78 6.89 0.96 4294967295
3.39 5.16 4.90 4294967295
8.79 1.30 10.04 4294967295
8.47 2.21 8.73 4294967295
3.84 3.66 4.73 4294967295
9.48 2.98 9.31 4294967295
4.73 4.13 4.97 4294967295
4.95 9.34 1.35 4294967295
3.12 4.65 4.75 4294967295
4.85 4.59 5.36 4294967295
4.89 9.40 2.30 4294967295
8.25 6.79 0.72 4294967295
3.38 3.93 6.10 4294967295
9.07 1.64 0.92 4294967295
5.74 10.00 1.23 4294967295
3.56 5.19 4.82 4294967295
8.10 1.99 9.53 4294967295
3.85 4.50 6.38 4294967295
3.30 3.62 5.54 4294967295
9.10 3.14 0.87 4294967295
9.55 2.16 1.85 4294967295
8.36 7.02 0.95 4294967295
9.60 2.11 1.69 4294967295
6.25 9.05 2.75 4294967295
4.75 3.97 5.31 4294967295
8.81 2.47 2.41 4294967295
9.71 7.64 0.06 4294967295
8.39 2.12 2.33 4294967295
9.09 1.32 10.15 4294967295
6.48 9.95 2.10 4294967295
4.33 3.61 5.73 4294967295
8.23 8.28 0.07 4294967295
8.57 1.66 8.76 4294967295
8.91 1.21 9.04 4294967295
9.15 1.49 10.31 4294967295
8.36 1.89 2.21 4294967295
8.00 8.10 0.12 4294967295
3.88 5.08 4.63 4294967295
7.85 6.96 0.06 4294967295
9.63 1.26 9.30 4294967295
3.32 4.52 6.22 4294967295
4.03 3.68 6.03 4294967295
3.26 3.65 5.18 4294967295
4.71 3.94 5.18 4294967295
3.33 5.21 5.08 4294967295
8.06 1.70 1.72 4294967295
3.01 4.92 5.23 4294967295
8.69 1.42 1.56 4294967295
4.47 4.79 6.09 4294967295
8.82 2.70 2.37 4294967295
9.36 7.67 0.87 4294967295
9.49 2.02 1.87 4294967295
7.77 2.43 1.02 4294967295
8.25 2.50 9.16 4294967295
3.71 4.37 4.39 4294967295
4.86 9.61 1.74 4294967295
8.24 3.26 1.12 4294967295
9.63 1.44 10.05 4294967295
8.34 8.32 0.30 4294967295
3.14 4.37 6.07 4294967295
9.65 2.39 1.14 4294967295
8.74 7.36 1.12 4294967295
8.21 8.26 0.26 4294967295
8.45 8.37 0.00 4294967295
3.28 4.36 4.57 4294967295
3.21 3.89 5.92 4294967295
3.02 4.09 4.96 4294967295
9.26 1.24 10.02 4294967295
9.31 1.28 10.07 4294967295
6.05 10.19 1.66 4294967295
8.35 2.31 8.88 4294967295
9.26 3.03 9.25 4294967295
8.36 8.30 -0.18 4294967295
9.28 8.07 -0.42 4294967295
8.80 2.36 8.59 4294967295
5.41 8.48 1.37 4294967295
8.47 7.95 0.93 4294967295
4.93 8.74 1.81 4294967295
3.41 5.11 4.82 4294967295
9.49 1.31 10.01 4294967295
7.83 2.92 1.29 4294967295
7.95 2.91 0.96 4294967295
8.73 8.18 0.77 4294967295
6.51 9.30 2.58 4294967295
3.69 3.64 4.79 4294967295
9.49 7.10 0.69 4294967295
5.38 10.11 1.57 4294967295
4.51 3.79 4.95 4294967295
6.21 9.59 1.05 4294967295
3.02 4.93 5.22 4294967295
7.93 1.78 1.60 4294967295
8.36 6.61 -0.33 4294967295
8.18 6.63 0.36 4294967295
5.42 9.47 0.98 4294967295
6.14 9.77 1.11 4294967295
8.83 1.62 8.66 4294967295
6.51 9.43 2.55 4294967295
8.35 2.77 2.29 4294967295
8.95 8.34 0.46 4294967295
7.70 2.58 1.45 4294967295
3.15 4.27 4.70 4294967295
3.85 5.24 4.81 4294967295
3.51 4.57 6.31 4294967295
5.73 8.27 1.74 4294967295
9.33 2.47 8.61 4294967295
8.18 2.28 0.57 4294967295
9.81 2.51 8.95 4294967295
9.68 1.48 10.05 4294967295
4.62 3.78 5.53 4294967295
9.14 2.78 2.24 4294967295
9.09 2.38 0.51 4294967295
8.37 7.91 0.92 4294967295
6.49 9.77 2.38 4294967295
8.40 3.15 2.03 4294967295
8.24 2.41 9.91 4294967295
9.60 2.68 1.72 4294967295
9.66 2.08 8.68 4294967295
9.54 1.92 1.61 4294967295
9.17 1.10 9.33 4294967295
8.57 1.34 9.92 4294967295
3.30 4.98 4.77 4294967295
7.82 2.74 1.80 4294967295
4.45 3.75 4.93 4294967295
8.46 2.65 10.03 4294967295
6.54 9.91 1.99 4294967295
6.07 9.21 0.93 4294967295
4.62 4.36 6.03 4294967295
3.58 4.42 6.34 4294967295
3.84 3.51 4.96 4294967295
8.21 8.04 -0.46 4294967295
8.78 2.90 2.29 4294967295
5.97 9.51 2.84 4294967295
8.80 7.39 1.12 4294967295
6.40 8.76 1.27 4294967295
9.14 3.25 1.73 4294967295
8.81 6.91 -0.74 4294967295
9.12 2.94 10.01 4294967295
5.85 9.43 2.87 4294967295
9.13 6.68 0.67 4294967295
6.72 9.37 1.55 4294967295
8.84 1.18 9.16 4294967295
9.84 2.38 10.11 4294967295
3.37 4.33 6.24 4294967295
8.70 1.54 0.93 4294967295
8.31 7.27 -0.77 4294967295
6.11 9.30 0.94 4294967295
5.82 8.35 1.46 4294967295
8.96 6.76 0.83 4294967295
9.24 2.33 8.55 4294967295
3.28 3.61 5.35 4294967295
4.18 4.52 6.33 4294967295
9.52 2.27 10.39 4294967295
8.20 2.20 9.07 4294967295
8.85 1.96 10.47 4294967295
9.39 1.74 1.66 4294967295
4.10 3.45 5.36 4294967295
2.88 4.44 5.21 4294967295
5.12 8.69 2.37 4294967295
3.64 5.35 5.08 4294967295
3.92 4.48 6.38 4294967295
3.97 3.77 4.63 4294967295
9.85 1.46 9.71 4294967295
8.38 2.15 2.33 4294967295
9.27 1.38 8.81 4294967295
3.69 5.41 5.40 4294967295
3.15 4.63 6.05 4294967295
6.12 10.20 1.88 4294967295
9.14 1.53 1.53 4294967295
7.91 2.73 0.87 4294967295
8.40 6.55 -0.23 4294967295
10.04 1.85 9.72 4294967295
3.82 4.60 4.40 4294967295
9.30 1.88 0.84 4294967295
4.07 3.70 4.72 4294967295
4.54 4.56 4.66 4294967295
3.27 5.12 5.78 4294967295
5.59 8.31 1.62 4294967295
8.54 7.70 1.06 4294967295
7.93 3.06 1.53 4294967295
3.79 4.68 4.42 4294967295
9.44 6.75 -0.10 4294967295
9.07 2.89 0.63 4294967295
9.91 2.62 9.31 4294967295
3.03 4.82 5.00 4294967295
9.29 2.66 10.29 4294967295
5.56 9.75 1.05 4294967295
8.22 1.79 2.05 4294967295
9.06 3.07 9.64 4294967295
9.85 2.64 9.84 4294967295
9.39 8.11 -0.18 4294967295
6.65 9.37 2.38 4294967295
8.61 2.42 10.31 4294967295
5.15 8.58 2.27 4294967295
6.10 8.96 0.98 4294967295
9.13 8.12 0.72 4294967295
4.92 9.26 2.39 4294967295
6.35 9.00 2.68 4294967295
9.16 3.27 1.19 4294967295
5.43 10.14 1.59 4294967295
7.82 7.26 0.48 4294967295
5.59 9.99 1.25 4294967295
4.52 5.07 4.99 4294967295
8.62 2.34 0.42 4294967295
8.12 1.61 1.58 4294967295
8.25 1.98 0.63 4294967295
3.57 4.52 4.43 4294967295
8.01 7.55 -0.55 4294967295
8.54 2.06 0.50 4294967295
5.41 9.61 2.74 4294967295
9.48 2.95 1.72 4294967295
5.28 8.82 2.64 4294967295
9.94 2.32 9.99 4294967295
9.99 1.95 9.93 4294967295
6.04 9.95 1.22 4294967295
8.05 3.16 1.63 4294967295
9.36 1.13 9.32 4294967295
3.48 5.28 5.03 4294967295
9.36 1.29 10.06 4294967295
8.55 7.75 1.04 4294967295
5.36 8.37 1.70 4294967295
8.49 2.49 8.82 4294967295
8.87 7.35 -0.87 4294967295
8.97 8.04 -0.63 4294967295
3.58 4.92 4.56 4294967295
8.84 2.50 10.38 4294967295
5.55 9.02 0.94 4294967295
3.34 4.46 4.53 4294967295
3.01 4.12 4.95 4294967295
3.99 3.88 6.21 4294967295
8.97 2.85 0.56 4294967295
8.30 3.03 2.10 4294967295
8.89 7.29 1.10 4294967295
4.73 4.74 5.77 4294967295
4.84 9.56 1.95 4294967295
5.02 9.82 2.19 4294967295
9.28 2.11 0.68 4294967295
3.64 4.96 4.57 4294967295
5.48 10.19 2.04 4294967295
8.59 3.03 2.20 4294967295
5.26 9.70 2.61 4294967295
8.65 8.42 0.12 4294967295
2.90 4.14 5.36 4294967295
3.18 4.71 4.72 4294967295
7.88 7.44 -0.39 4294967295
9.22 8.03 -0.52 4294967295
9.61 2.11 8.65 4294967295
9.67 7.07 0.17 4294967295
9.31 3.18 1.27 4294967295
5.20 8.57 2.32 4294967295
4.79 4.53 5.74 4294967295
3.43 3.85 6.08 4294967295
9.11 2.07 8.50 4294967295
8.23 8.27 0.26 4294967295
5.63 8.55 1.20 4294967295
9.36 7.23 -0.64 4294967295
9.89 2.67 9.35 4294967295
3.43 3.93 6.14 4294967295
3.61 3.90 6.20 4294967295
9.36 8.16 0.39 4294967295
9.04 6.97 -0.72 4294967295
3.59 3.63 5.93 4294967295
9.75 2.42 8.83 4294967295
4.25 4.58 6.29 4294967295
9.38 2.39 0.70 4294967295
4.47 4.56 4.60 4294967295
9.03 2.10 8.51 4294967295
8.13 2.19 9.72 4294967295
4.20 3.68 5.97 4294967295
6.56 8.82 2.35 4294967295
8.03 6.87 -0.32 4294967295
8.71 1.22 9.18 4294967295
5.37 8.38 1.64 4294967295
8.60 8.16 0.78 4294967295
9.72 2.78 9.85 4294967295
9.66 2.40 1.18 4294967295
5.03 9.69 2.37 4294967295
9.72 2.25 8.74 4294967295
8.36 8.00 -0.60 4294967295
9.49 7.45 0.78 4294967295
8.97 6.46 -0.00 4294967295
6.44 9.96 1.62 4294967295
7.97 1.75 1.20 4294967295
8.70 2.64 10.23 4294967295
8.71 3.40 1.28 4294967295
8.43 2.77 9.79 4294967295
3.85 5.11 6.11 4294967295
9.56 7.97 -0.04 4294967295
5.06 9.86 2.20 4294967295
9.39 1.78 1.09 4294967295
8.45 2.38 8.80 4294967295
3.95 4.50 4.39 4294967295
8.45 3.23 1.94 4294967295
8.75 1.15 9.60 4294967295
9.26 6.63 0.45 4294967295
5.32 8.42 1.58 4294967295
2.99 4.51 4.90 4294967295
2.88 4.44 5.24 4294967295
7.95 7.56 0.71 4294967295
4.61 4.29 6.03 4294967295
3.94 3.54 5.85 4294967295
8.25 1.71 1.97 4294967295
8.78 2.21 8.56 4294967295
5.33 8.63 1.26 4294967295
7.79 2.48 0.99 4294967295
5.37 9.36 0.99 4294967295
9.21 1.39 10.22 4294967295
8.21 7.29 -0.72 4294967295
9.37 3.04 9.54 4294967295
8.08 1.78 0.93 4294967295
4.51 3.74 5.02 4294967295
8.51 1.65 2.04 4294967295
8.61 6.58 0.64 4294967295
3.23 5.13 5.07 4294967295
8.35 8.11 -0.50 4294967295
9.87 1.80 10.06 4294967295
8.70 3.30 0.96 4294967295
4.17 3.87 4.61 4294967295
8.73 1.84 8.61 4294967295
9.39 2.65 0.75 4294967295
4.85 4.51 5.51 4294967295
6.27 8.41 1.65 4294967295
4.22 5.06 6.06 4294967295
5.21 8.65 2.44 4294967295
8.55 1.43 1.31 4294967295
3.01 4.80 5.74 4294967295
8.06 2.90 0.81 4294967295
8.57 7.89 -0.75 4294967295
4.70 4.24 4.86 4294967295
8.52 7.48 -0.86 4294967295
9.19 7.85 -0.66 4294967295
9.70 7.58 -0.08 4294967295
3.52 4.78 4.51 4294967295
9.08 1.35 10.19 4294967295
4.26 5.30 5.64 4294967295
5.40 9.31 0.97 4294967295
8.90 2.33 0.45 4294967295
6.77 9.24 1.72 4294967295
8.77 6.47 -0.18 4294967295
5.42 10.01 1.35 4294967295
8.86 2.95 9.07 4294967295
9.16 6.66 -0.37 4294967295
9.84 2.73 9.66 4294967295
8.38 8.33 -0.10 4294967295
4.50 4.62 6.13 4294967295
8.54 6.58 0.62 4294967295
9.78 1.49 9.93 4294967295
6.58 8.82 1.47 4294967295
9.70 1.29 9.42 4294967295
5.02 8.79 1.44 4294967295
3.47 4.99 6.10 4294967295
3.74 3.95 4.51 4294967295
8.10 1.68 1.07 4294967295
8.60 8.24 -0.44 4294967295
8.12 2.16 0.63 4294967295
7.69 2.50 1.47 4294967295
8.37 1.40 9.41 4294967295
9.14 2.96 2.12 4294967295
8.22 6.59 -0.09 4294967295
9.05 3.00 0.70 4294967295
8.08 7.90 0.70 4294967295
5.58 10.19 2.15 4294967295
5.15 8.70 2.42 4294967295
8.47 8.38 -0.00 4294967295
8.99 7.48 -0.85 4294967295
7.80 2.57 1.85 4294967295
4.45 4.54 6.18 4294967295
9.77 1.78 10.18 4294967295
4.43 3.65 5.09 4294967295
8.31 2.46 9.01 4294967295
9.47 7.73 -0.49 4294967295
9.53 1.45 8.86 4294967295
8.99 3.37 1.42 4294967295
9.03 6.71 -0.52 4294967295
6.27 8.42 2.16 4294967295
8.29 7.57 1.00 4294967295
3.28 4.85 6.07 4294967295
6.39 8.83 1.21 4294967295
4.09 3.47 5.59 4294967295
4.09 5.34 5.05 4294967295
6.75 9.03 2.05 4294967295
5.40 9.24 0.97 4294967295
3.76 3.77 4.63 4294967295
9.36 3.01 1.86 4294967295
5.08 8.69 1.47 4294967295
5.66 10.13 2.35 4294967295
5.03 9.85 1.63 4294967295
4.39 3.61 5.62 4294967295
7.97 7.85 -0.36 4294967295
9.62 2.68 8.90 4294967295
8.53 2.86 9.23 4294967295
9.08 1.10 9.31 4294967295
8.98 1.09 9.42 4294967295
9.26 2.87 2.10 4294967295
3.50 3.95 4.57 4294967295
9.59 2.81 1.59 4294967295
8.55 8.40 0.03 4294967295
8.94 1.96 10.48 4294967295
6.58 9.61 1.39 4294967295
9.61 2.10 1.19 4294967295
9.57 6.87 0.14 4294967295
9.53 7.29 -0.48 4294967295
4.45 3.99 4.70 4294967295
9.11 6.50 0.03 4294967295
3.35 3.75 5.92 4294967295
8.72 2.46 0.42 4294967295
8.21 3.26 1.19 4294967295
6.64 9.43 1.39 4294967295
5.18 8.78 2.52 4294967295
8.30 2.25 10.08 4294967295
9.38 7.58 0.87 4294967295
8.63 1.49 1.05 4294967295
6.23 9.55 1.04 4294967295
9.39 2.60 10.30 4294967295
4.86 4.56 5.36 4294967295
9.61 2.78 1.29 4294967295
4.36 4.98 6.04 4294967295
8.38 1.41 9.72 4294967295
9.12 2.70 0.56 4294967295
9.20 2.88 10.10 4294967295
3.37 3.73 5.91 4294967295
8.21 1.73 9.20 4294967295
9.28 6.84 -0.49 4294967295
9.17 1.56 1.62 4294967295
8.51 1.58 0.90 4294967295
9.58 2.65 1.04 4294967295
4.82 4.14 5.33 4294967295
5.28 8.39 1.90 4294967295
4.39 5.27 5.34 4294967295
9.45 1.19 9.22 4294967295
3.94 5.42 5.34 4294967295
8.20 6.90 0.78 4294967295
9.28 1.62 1.29 4294967295
9.73 7.45 0.27 4294967295
5.41 9.06 2.80 4294967295
9.11 7.10 0.99 4294967295
5.13 9.25 2.64 4294967295
9.51 1.28 9.06 4294967295
6.53 9.49 1.26 4294967295
8.71 2.93 2.27 4294967295
4.81 4.40 5.05 4294967295
3.29 3.72 5.81 4294967295
3.64 4.61 6.34 4294967295
3.03 4.59 4.85 4294967295
9.30 7.86 -0.58 4294967295
5.90 8.52 2.56 4294967295
6.13 10.17 2.10 4294967295
3.49 4.65 6.28 4294967295
8.17 6.94 0.79 4294967295
9.49 3.01 1.46 4294967295
6.03 9.95 2.57 4294967295
8.39 2.02 0.55 4294967295
8.55 1.24 9.49 4294967295
9.60 7.46 0.63 4294967295
7.98 1.90 1.90 4294967295
9.57 2.54 0.97 4294967295
8.66 7.82 -0.79 4294967295
8.29 1.79 2.09 4294967295
8.74 6.56 -0.39 4294967295
6.17 8.86 2.72 4294967295
5.73 8.64 1.10 4294967295
5.72 9.09 0.90 4294967295
9.30 1.83 0.89 4294967295
6.41 8.48 1.78 4294967295
3.38 5.03 6.01 4294967295
8.64 8.11 0.84 4294967295
9.46 1.78 1.36 4294967295
8.27 3.29 1.65 4294967295
9.06 2.87 0.61 4294967295
5.63 9.23 0.90 4294967295
8.33 1.47 9.71 4294967295
8.50 6.98 0.98 4294967295
7.86 2.13 1.91 4294967295
8.69 2.57 0.43 4294967295
9.07 2.41 0.50 4294967295
5.93 9.88 1.12 4294967295
6.27 9.98 2.38 4294967295
2.97 4.05 5.62 4294967295
9.01 3.27 1.83 4294967295
8.05 2.93 1.99 4294967295
4.10 3.90 6.20 4294967295
8.54 2.70 10.05 4294967295
9.04 1.35 10.19 4294967295
9.43 7.92 -0.41 4294967295
3.38 5.07 4.79 4294967295
9.42 7.25 0.83 4294967295
4.75 4.87 5.23 4294967295
9.08 2.84 8.85 4294967295
5.86 8.40 2.40 4294967295
7.88 6.99 -0.17 4294967295
5.30 8.44 2.19 4294967295
8.77 1.45 1.69 4294967295
4.81 4.10 5.28 4294967295
6.27 9.99 2.37 4294967295
8.54 7.61 1.08 4294967295
9.03 1.13 9.82 4294967295
9.87 2.72 9.57 4294967295
7.82 7.39 0.52 4294967295
8.43 6.48 0.01 4294967295
8.05 6.72 0.28 4294967295
4.73 4.34 5.88 4294967295
5.98 8.45 2.45 4294967295
5.43 8.96 2.77 4294967295
7.90 7.86 -0.22 4294967295
6.41 10.01 2.08 4294967295
4.92 8.80 2.08 4294967295
9.52 2.04 1.01 4294967295
7.71 2.22 1.51 4294967295
9.57 7.89 -0.17 4294967295
8.21 1.77 0.82 4294967295
6.60 9.68 2.28 4294967295
8.39 8.36 0.08 4294967295
8.82 6.63 0.73 4294967295
8.88 1.82 10.44 4294967295
8.71 7.52 1.11 4294967295
5.38 9.76 2.65 4294967295
9.48 1.96 1.01 4294967295
5.79 9.65 2.81 4294967295
8.11 1.94 9.42 4294967295
5.33 10.01 2.35 4294967295
5.81 8.80 2.78 4294967295
6.40 8.47 1.78 4294967295
9.08 8.35 0.01 4294967295
9.43 2.99 9.25 4294967295
3.42 4.81 4.58 4294967295
9.42 2.24 2.08 4294967295
8.24 7.64 0.96 4294967295
8.52 1.48 1.09 4294967295
9.34 6.67 0.40 4294967295
8.01 7.85 -0.42 4294967295
3.64 5.11 4.69 4294967295
8.39 6.52 0.38 4294967295
9.60 1.35 9.04 4294967295
5.25 8.96 2.68 4294967295
10.02 2.13 9.13 4294967295
8.94 7.83 1.01 4294967295
3.07 4.15 4.85 4294967295
8.16 7.26 -0.68 4294967295
8.72 7.87 1.01 4294967295
2.88 4.53 5.48 4294967295
8.08 2.98 1.98 4294967295
8.32 6.66 -0.37 4294967295
9.50 2.36 8.63 4294967295
6.35 9.24 2.72 4294967295
6.28 9.56 2.70 4294967295
8.33 1.48 1.34 4294967295
2.92 4.71 5.22 4294967295
6.09 9.20 0.94 4294967295
6.15 10.18 2.01 4294967295
3.71 4.33 4.40 4294967295
8.70 8.14 -0.58 4294967295
4.83 4.26 5.60 4294967295
7.80 7.19 -0.13 4294967295
8.31 1.67 9.04 4294967295
9.08 7.41 1.06 4294967295
9.15 2.37 2.31 4294967295
5.26 10.01 2.27 4294967295
4.68 3.85 5.31 4294967295
6.00 10.20 1.63 4294967295
9.58 1.22 9.34 4294967295
9.61 1.48 8.89 4294967295
9.44 1.36 8.91 4294967295
6.08 9.38 2.84 4294967295
8.99 1.87 2.20 4294967295
3.38 4.07 6.18 4294967295
6.53 9.93 1.93 4294967295
8.44 2.48 0.45 4294967295
9.65 7.34 -0.27 4294967295
8.27 8.27 -0.13 4294967295
8.30 2.63 9.25 4294967295
8.76 2.31 10.41 4294967295
4.83 4.18 5.41 4294967295
9.18 1.65 1.83 4294967295
9.65 7.04 0.26 4294967295
8.25 1.55 9.52 4294967295
4.51 3.78 4.96 4294967295
8.38 7.45 1.05 4294967295
3.33 4.43 4.54 4294967295
3.37 3.56 5.38 4294967295
9.21 8.30 0.11 4294967295
2.88 4.34 5.53 4294967295
3.85 4.31 4.39 4294967295
8.74 1.87 10.42 4294967295
5.72 8.58 2.63 4294967295
7.77 7.19 0.05 4294967295
4.68 4.93 5.67 4294967295
9.19 1.27 10.09 4294967295
9.26 1.65 1.13 4294967295
8.92 7.12 1.05 4294967295
8.20 1.66 9.34 4294967295
8.70 1.50 1.02 4294967295
7.74 7.43 0.15 4294967295
4.38 5.22 5.08 4294967295
9.80 2.25 10.19 4294967295
7.89 7.94 0.18 4294967295
9.10 2.86 2.21 4294967295
9.30 3.13 1.76 4294967295
5.69 10.07 1.31 4294967295
4.60 3.75 5.39 4294967295
2.97 4.68 5.76 4294967295
8.25 6.57 -0.08 4294967295
6.68 9.68 1.78 4294967295
9.93 2.49 9.13 4294967295
5.20 9.41 1.09 4294967295
8.80 2.31 0.43 4294967295
5.79 8.39 2.40 4294967295
9.03 8.01 -0.64 4294967295
7.74 7.40 0.17 4294967295
3.89 4.64 6.36 4294967295
9.65 2.63 1.24 4294967295
9.32 8.23 0.12 4294967295
8.96 2.19 8.52 4294967295
4.78 4.35 4.98 4294967295
8.37 8.09 0.77 4294967295
7.93 3.06 1.29 4294967295
9.60 7.93 0.10 4294967295
7.93 7.97 0.31 4294967295
4.30 3.54 5.54 4294967295
6.10 9.34 2.83 4294967295
3.91 5.29 4.89 4294967295
8.59 1.76 10.30 4294967295
8.67 2.75 0.48 4294967295
5.60 9.91 1.16 4294967295
6.76 9.17 1.68 4294967295
4.12 5.11 4.70 4294967295
9.35 2.86 8.93 4294967295
9.09 8.26 -0.30 4294967295
8.26 1.54 9.60 4294967295
5.68 8.37 1.44 4294967295
5.28 8.86 1.12 4294967295
8.61 1.45 1.69 4294967295
3.36 4.12 4.57 4294967295
4.97 8.73 1.66 4294967295
9.22 6.93 0.84 4294967295
9.45 2.93 1.81 4294967295
5.50 9.11 2.84 4294967295
2.91 4.19 5.58 4294967295
9.29 2.29 10.46 4294967295
3.06 4.09 5.88 4294967295
3.88 4.18 4.41 4294967295
6.50 8.56 1.80 4294967295
5.02 8.92 2.44 4294967295
6.44 9.65 1.23 4294967295
9.51 2.55 1.97 4294967295
8.38 2.75 9.30 4294967295
6.15 8.39 2.25 4294967295
8.35 1.64 0.88 4294967295
8.77 2.32 2.41 4294967295
9.47 1.80 1.42 4294967295
8.41 1.46 1.51 4294967295
9.58 7.04 -0.27 4294967295
9.53 7.59 -0.46 4294967295
8.45 8.04 0.85 4294967295
4.39 4.08 4.60 4294967295
3.84 3.45 5.14 4294967295
8.82 1.86 0.60 4294967295
8.03 7.12 0.76 4294967295
6.47 9.98 1.99 4294967295
5.00 8.64 1.93 4294967295
8.12 1.88 9.44 4294967295
4.12 5.12 4.71 4294967295
9.74 2.82 9.29 4294967295
4.85 9.05 2.18 4294967295
8.57 2.19 0.45 4294967295
8.14 1.79 9.43 4294967295
8.55 1.24 9.50 4294967295
9.64 7.08 -0.15 4294967295
5.63 10.22 1.71 4294967295
8.96 2.98 9.91 4294967295
6.14 9.57 1.01 4294967295
5.73 8.25 1.88 4294967295
8.14 2.26 9.29 4294967295
5.30 8.68 2.55 4294967295
5.94 10.11 1.40 4294967295
6.37 9.72 2.55 4294967295
4.29 3.87 6.10 4294967295
9.09 6.62 -0.36 4294967295
6.44 8.56 1.58 4294967295
9.58 7.86 0.44 4294967295
9.43 6.71 0.23 4294967295
5.66 9.58 2.83 4294967295
9.12 8.18 -0.40 4294967295
5.94 8.51 1.23 4294967295
8.16 3.13 1.88 4294967295
9.87 1.53 9.18 4294967295
4.07 3.48 5.66 4294967295
8.49 7.71 -0.81 4294967295
7.84 7.03 -0.09 4294967295
4.82 4.41 5.68 4294967295
6.65 8.91 2.26 4294967295
6.58 8.76 2.24 4294967295
3.78 3.47 5.68 4294967295
9.11 2.25 2.31 4294967295
8.90 8.33 0.51 4294967295
4.81 4.10 5.35 4294967295
6.64 9.76 1.73 4294967295
8.25 1.85 2.12 4294967295
6.75 9.06 1.70 4294967295
9.17 3.21 1.06 4294967295
8.78 6.56 -0.39 4294967295
8.03 2.79 2.08 4294967295
8.80 2.90 9.01 4294967295
9.15 1.93 8.52 4294967295
9.16 2.42 2.30 4294967295
6.76 9.05 1.96 4294967295
5.11 8.63 1.50 4294967295
7.99 1.70 1.34 4294967295
9.53 7.93 -0.21 4294967295
9.00 2.08 0.53 4294967295
5.69 9.43 0.91 4294967295
8.30 3.20 1.90 4294967295
4.43 4.40 4.56 4294967295
4.12 4.05 6.27 4294967295
3.41 5.25 5.70 4294967295
4.55 4.69 4.70 4294967295
9.70 7.46 -0.14 4294967295
3.54 4.27 4.45 4294967295
4.84 9.50 2.10 4294967295
7.87 2.53 0.86 4294967295
8.44 2.87 0.56 4294967295
6.41 9.98 1.61 4294967295
4.07 4.17 4.43 4294967295
5.70 8.81 1.00 4294967295
9.34 6.86 -0.45 4294967295
10.00 2.05 9.08 4294967295
3.90 3.81 4.59 4294967295
10.04 2.19 9.19 4294967295
5.50 8.29 1.90 4294967295
9.35 2.67 2.12 4294967295
3.02 3.93 5.16 4294967295
3.33 3.71 4.93 4294967295
8.80 8.42 0.20 4294967295
8.34 1.50 9.19 4294967295
4.80 4.27 5.05 4294967295
9.41 3.10 1.42 4294967295
5.92 8.85 0.98 4294967295
4.83 9.42 2.12 4294967295
9.32 1.26 8.97 4294967295
8.19 2.27 0.56 4294967295
8.19 1.61 1.75 4294967295
9.59 2.38 10.32 4294967295
4.49 4.19 4.64 4294967295
8.55 1.68 2.08 4294967295
4.53 4.95 4.85 4294967295
8.71 1.84 10.39 4294967295
8.88 2.64 2.38 4294967295
8.14 1.82 9.40 4294967295
8.48 2.49 0.44 4294967295
10.06 1.94 9.27 4294967295
3.49 4.20 4.48 4294967295
4.64 4.32 6.00 4294967295
8.73 1.93 8.58 4294967295
9.28 7.61 -0.70 4294967295
8.84 3.19 2.03 4294967295
9.96 2.50 9.23 4294967295
7.91 7.74 -0.35 4294967295
3.84 4.66 4.41 4294967295
9.64 2.41 1.12 4294967295
6.35 8.50 1.55 4294967295
7.70 2.37 1.26 4294967295
8.54 8.40 0.08 4294967295
6.62 8.82 1.55 4294967295
9.66 1.29 9.27 4294967295
6.29 8.81 1.14 4294967295
3.22 4.46 6.15 4294967295
3.97 5.29 5.87 4294967295
5.02 9.72 1.45 4294967295
3.52 3.67 5.95 4294967295
8.42 1.73 2.10 4294967295
4.80 9.43 1.89 4294967295
8.81 3.40 1.28 4294967295
9.42 7.17 -0.57 4294967295
6.05 8.30 2.04 4294967295
9.86 1.45 9.39 4294967295
8.66 7.30 -0.87 4294967295
8.62 7.01 -0.78 4294967295
8.21 1.61 9.51 4294967295
9.11 1.58 1.07 4294967295
7.74 7.49 0.13 4294967295
5.56 10.21 2.06 4294967295
9.00 1.16 9.89 4294967295
9.00 2.29 0.48 4294967295
3.46 3.62 5.83 4294967295
3.02 4.17 4.91 4294967295
4.81 4.74 5.26 4294967295
8.63 2.10 10.39 4294967295
8.97 1.72 0.76 4294967295
5.55 8.44 1.36 4294967295
4.02 4.92 6.24 4294967295
9.42 1.25 9.96 4294967295
6.14 8.52 1.30 4294967295
9.43 7.56 -0.59 4294967295
8.96 3.04 9.26 4294967295
3.65 3.48 5.62 4294967295
5.49 10.20 1.96 4294967295
8.93 2.19 10.48 4294967295
7.97 7.48 0.76 4294967295
6.17 8.41 1.51 4294967295
5.54 8.71 1.09 4294967295
6.03 9.60 2.79 4294967295
8.95 1.69 8.60 4294967295
9.13 3.29 1.23 4294967295
9.75 1.39 9.20 4294967295
8.24 1.60 1.06 4294967295
8.69 2.91 9.88 4294967295
8.26 1.60 1.02 4294967295
9.13 6.60 0.53 4294967295
3.58 5.32 5.71 4294967295
3.03 4.97 5.33 4294967295
8.98 1.11 9.28 4294967295
9.40 7.22 0.84 4294967295
6.73 9.59 1.94 4294967295
9.65 7.00 0.16 4294967295
2.93 4.76 5.31 4294967295
9.24 8.01 0.75 4294967295
8.69 1.35 8.95 4294967295
9.50 2.98 9.37 4294967295
9.65 2.40 1.16 4294967295
8.88 2.40 10.43 4294967295
6.34 9.59 2.66 4294967295
5.30 8.69 1.23 4294967295
7.94 7.90 -0.25 4294967295
8.94 7.03 -0.78 4294967295
6.47 9.30 1.15 4294967295
3.86 5.40 5.16 4294967295
5.39 9.55 2.76 4294967295
2.99 4.35 5.87 4294967295
8.58 1.59 10.20 4294967295
4.39 3.59 5.18 4294967295
9.33 2.97 0.90 4294967295
8.60 3.27 1.93 4294967295
9.57 7.84 -0.26 4294967295
3.60 3.46 5.46 4294967295
4.70 4.00 5.72 4294967295
10.05 1.79 9.42 4294967295
9.10 3.30 1.22 4294967295
9.73 2.43 10.20 4294967295
2.91 4.45 5.08 4294967295
4.80 9.19 2.04 4294967295
8.13 8.20 0.28 4294967295
3.72 4.37 6.37 4294967295
3.11 4.41 6.04 4294967295
9.62 2.84 9.90 4294967295
9.27 2.89 2.08 4294967295
8.61 2.32 8.66 4294967295
9.86 1.44 9.58 4294967295
9.08 2.02 0.59 4294967295
8.70 1.74 0.68 4294967295
8.52 1.95 2.29 4294967295
4.43 4.56 6.19 4294967295
9.67 2.58 1.52 4294967295
9.12 3.17 1.90 4294967295
4.61 4.12 4.79 4294967295
5.62 8.54 1.20 4294967295
9.43 1.92 0.97 4294967295
8.24 2.59 9.55 4294967295
7.83 7.67 0.46 4294967295
9.02 2.98 2.17 4294967295
9.47 1.68 10.34 4294967295
7.91 6.88 0.01 4294967295
8.25 7.50 0.99 4294967295
8.49 1.45 1.59 4294967295
7.75 7.51 -0.03 4294967295
2.90 4.35 5.11 4294967295
6.66 9.24 1.40 4294967295
8.39 2.23 8.81 4294967295
8.65 1.75 10.34 4294967295
8.95 8.33 0.49 4294967295
7.89 1.89 1.72 4294967295
8.93 1.26 10.05 4294967295
9.49 7.56 -0.53 4294967295
8.41 3.35 1.20 4294967295
9.07 2.18 10.50 4294967295
9.20 7.93 0.85 4294967295
8.25 6.71 -0.38 4294967295
6.09 8.46 2.41 4294967295
5.97 9.33 0.91 4294967295
9.80 1.62 8.96 4294967295
5.66 10.24 1.94 4294967295
4.40 4.98 6.01 4294967295
9.00 6.70 -0.52 4294967295
3.01 4.14 4.94 4294967295
3.29 3.68 5.03 4294967295
7.75 2.38 1.77 4294967295
6.47 9.86 1.47 4294967295
8.56 1.80 0.64 4294967295
5.20 8.51 2.21 4294967295
5.58 9.85 1.11 4294967295
4.80 4.16 5.13 4294967295
8.80 1.27 9.00 4294967295
3.44 4.01 6.19 4294967295
3.52 3.64 4.86 4294967295
9.26 2.70 10.27 4294967295
5.67 10.08 2.45 4294967295
5.87 9.30 0.89 4294967295
2.89 4.22 5.31 4294967295
9.43 2.83 1.95 4294967295
5.12 9.62 2.54 4294967295
9.57 2.40 8.68 4294967295
4.45 4.96 5.99 4294967295
9.01 8.34 0.40 4294967295
8.72 3.04 2.20 4294967295
9.14 1.95 0.66 4294967295
3.63 4.22 6.33 4294967295
6.65 8.75 1.85 4294967295
8.55 1.29 9.24 4294967295
9.61 2.70 1.17 4294967295
8.55 7.69 1.06 4294967295
9.49 6.80 0.35 4294967295
6.64 9.22 2.41 4294967295
9.46 2.20 2.02 4294967295
8.83 3.00 9.81 4294967295
4.45 5.13 4.98 4294967295
4.17 5.01 4.63 4294967295
9.37 3.13 1.28 4294967295
9.28 3.21 1.32 4294967295
9.54 2.64 8.80 4294967295
8.13 2.26 9.33 4294967295
5.79 8.37 2.36 4294967295
4.32 3.53 5.35 4294967295
5.84 8.92 0.95 4294967295
8.10 8.15 0.37 4294967295
3.91 3.66 4.74 4294967295
9.04 1.49 1.25 4294967295
9.21 1.21 9.03 4294967295
3.40 4.79 4.58 4294967295
9.64 2.92 9.41 4294967295
5.23 8.74 1.24 4294967295
6.41 8.55 1.53 4294967295
7.84 2.58 1.93 4294967295
9.63 1.53 10.15 4294967295
5.13 9.76 1.33 4294967295
9.56 2.49 1.91 4294967295
9.21 2.76 8.78 4294967295
6.19 8.41 2.24 4294967295
5.37 9.63 2.71 4294967295
5.58 10.18 2.20 4294967295
9.16 8.31 -0.06 4294967295
5.93 9.96 2.58 4294967295
4.68 4.10 5.86 4294967295
8.97 1.09 9.43 4294967295
5.98 8.30 2.11 4294967295
5.68 9.42 2.87 4294967295
9.07 7.03 -0.74 4294967295
9.25 2.01 10.49 4294967295
6.27 10.12 2.04 4294967295
3.98 4.10 4.44 4294967295
8.46 2.84 9.35 4294967295
9.28 1.12 9.73 4294967295
3.51 3.68 4.81 4294967295
4.86 9.41 2.23 4294967295
3.48 5.33 5.57 4294967295
8.19 2.00 9.10 4294967295
3.15 3.93 4.88 4294967295
6.57 9.63 2.38 4294967295
5.09 8.57 2.11 4294967295
9.29 8.23 -0.09 4294967295
4.73 4.61 4.91 4294967295
9.63 6.97 0.16 4294967295
7.79 2.65 1.04 4294967295
6.46 9.79 1.38 4294967295
9.43 2.80 0.87 4294967295
5.78 8.45 2.48 4294967295
9.61 2.75 1.59 4294967295
9.28 3.18 1.66 4294967295
4.67 4.74 5.88 4294967295
5.63 9.83 2.69 4294967295
3.65 5.05 6.13 4294967295
9.06 6.49 -0.05 4294967295
8.67 2.25 10.39 4294967295
8.77 2.56 10.32 4294967295
4.83 9.15 2.15 4294967295
3.94 4.30 6.37 4294967295
4.04 3.45 5.53 4294967295
4.53 4.22 6.10 4294967295
7.71 2.23 1.28 4294967295
3.48 3.50 5.39 4294967295
6.43 9.62 2.57 4294967295
7.84 1.93 1.20 4294967295
4.22 3.58 5.79 4294967295
8.39 2.48 10.09 4294967295
5.37 8.39 1.62 4294967295
9.38 2.86 10.06 4294967295
8.04 1.94 0.83 4294967295
5.09 9.15 2.60 4294967295
5.71 8.73 1.04 4294967295
9.62 7.88 0.21 4294967295
5.84 9.02 2.86 4294967295
4.51 5.06 4.95 4294967295
9.41 1.80 1.74 4294967295
4.04 3.73 6.08 4294967295
9.18 2.76 10.24 4294967295
9.44 8.13 0.13 4294967295
9.03 1.08 9.49 4294967295
9.46 1.18 9.76 4294967295
5.05 9.14 1.22 4294967295
4.44 4.07 6.12 4294967295
8.25 2.98 2.12 4294967295
9.80 2.69 9.13 4294967295
3.71 3.50 5.03 4294967295
9.61 2.49 1.79 4294967295
4.63 3.81 5.58 4294967295
7.79 1.98 1.35 4294967295
8.45 1.55 8.96 4294967295
8.59 6.97 -0.76 4294967295
8.37 3.00 2.16 4294967295
8.22 7.46 0.98 4294967295
9.38 2.62 2.11 4294967295
8.03 2.20 2.14 4294967295
9.59 7.46 -0.41 4294967295
5.82 10.01 2.54 4294967295
8.13 1.76 1.92 4294967295
9.19 7.92 0.86 4294967295
5.40 8.53 2.46 4294967295
9.09 6.52 -0.13 4294967295
8.97 3.05 9.30 4294967295
9.56 7.96 -0.06 4294967295
8.75 2.18 2.39 4294967295
8.71 1.42 1.34 4294967295
4.00 4.55 6.36 4294967295
7.78 7.46 0.40 4294967295
3.95 5.40 5.57 4294967295
4.08 3.93 6.22 4294967295
8.32 3.32 1.63 4294967295
9.00 2.47 8.59 4294967295
4.82 4.71 5.35 4294967295
8.29 3.25 1.80 4294967295
9.64 2.90 9.33 4294967295
7.87 2.84 1.03 4294967295
9.36 6.66 -0.06 4294967295
7.89 2.39 2.02 4294967295
6.45 10.00 1.89 4294967295
10.05 1.87 9.74 4294967295
5.54 8.43 2.40 4294967295
4.01 3.48 5.08 4294967295
8.21 6.70 -0.32 4294967295
6.24 8.42 1.58 4294967295
8.20 6.72 -0.35 4294967295
3.87 3.65 6.02 4294967295
4.84 9.31 1.57 4294967295
8.61 1.46 1.72 4294967295
9.07 3.01 0.71 4294967295
4.80 9.37 1.82 4294967295
6.56 9.38 1.27 4294967295
5.43 9.41 2.81 4294967295
4.21 5.20 5.90 4294967295
7.82 2.13 1.83 4294967295
7.82 2.89 1.57 4294967295
4.01 3.61 5.94 4294967295
8.45 6.73 -0.54 4294967295
7.83 7.22 -0.25 4294967295
8.59 2.60 10.18 4294967295
8.80 1.98 0.53 4294967295
4.11 3.58 4.90 4294967295
8.83 2.78 2.34 4294967295
8.80 7.33 -0.87 4294967295
8.39 3.06 2.12 4294967295
8.44 8.37 -0.01 4294967295
5.89 10.23 1.72 4294967295
8.29 3.29 1.69 4294967295
8.82 2.83 0.52 4294967295
8.36 1.73 0.77 4294967295
9.09 6.71 -0.48 4294967295
9.04 2.01 2.26 4294967295
8.23 1.94 9.98 4294967295
8.36 7.89 0.92 4294967295
7.78 7.36 -0.16 4294967295
3.87 3.47 5.67 4294967295
9.04 6.95 -0.71 4294967295
5.92 8.57 2.61 4294967295
4.75 3.98 5.53 4294967295
5.43 9.15 2.81 4294967295
5.84 10.14 1.43 4294967295
8.77 2.20 10.44 4294967295
8.01 2.87 0.84 4294967295
5.21 9.11 1.08 4294967295
3.58 3.51 5.10 4294967295
3.70 4.61 4.41 4294967295
3.57 5.18 5.96 4294967295
4.93 9.61 2.25 4294967295
8.93 8.38 0.32 4294967295
4.81 9.43 1.98 4294967295
4.75 4.23 4.97 4294967295
8.57 3.09 2.15 4294967295
4.83 9.48 1.68 4294967295
4.15 3.60 5.87 4294967295
9.18 8.30 -0.05 4294967295
9.41 7.93 0.67 4294967295
7.77 2.78 1.24 4294967295
4.25 5.29 5.06 4294967295
2.88 4.32 5.23 4294967295
8.67 2.98 9.40 4294967295
4.96 8.86 1.49 4294967295
8.33 2.93 2.20 4294967295
8.93 2.72 0.50 4294967295
7.74 7.51 0.07 4294967295
9.00 1.42 8.76 4294967295
4.98 8.98 2.41 4294967295
8.16 6.64 -0.10 4294967295
9.14 2.82 8.83 4294967295
9.27 7.75 0.90 4294967295
7.91 6.88 0.23 4294967295
8.33 8.19 -0.38 4294967295
8.25 2.95 0.70 4294967295
4.52 4.05 4.72 4294967295
8.60 6.44 0.04 4294967295
8.22 3.07 0.83 4294967295
3.92 4.82 4.47 4294967295
5.28 8.63 2.48 4294967295
8.19 2.23 9.90 4294967295
7.93 6.90 0.40 4294967295
5.72 9.69 0.99 4294967295
6.30 10.11 1.89 4294967295
8.47 1.78 10.23 4294967295
8.69 1.33 8.98 4294967295
8.86 3.36 1.15 4294967295
6.14 10.03 1.36 4294967295
8.19 7.95 -0.52 4294967295
4.61 5.09 5.36 4294967295
4.64 4.24 5.98 4294967295
8.21 1.54 1.52 4294967295
9.51 7.94 -0.24 4294967295
9.15 3.08 9.50 4294967295
8.60 6.81 0.90 4294967295
9.66 1.41 9.01 4294967295
4.29 4.88 4.60 4294967295
8.92 7.58 1.09 4294967295
3.65 5.19 5.98 4294967295
3.18 5.10 5.65 4294967295
5.32 9.65 1.10 4294967295
6.25 8.38 2.05 4294967295
4.83 8.96 1.85 4294967295
8.74 3.24 0.85 4294967295
9.07 3.27 1.08 4294967295
6.78 9.38 1.93 4294967295
8.63 6.46 -0.15 4294967295
8.44 8.36 0.27 4294967295
10.06 2.00 9.26 4294967295
8.57 2.53 0.43 4294967295
3.62 3.80 6.13 4294967295
5.20 9.85 2.44 4294967295
3.37 4.73 4.57 4294967295
8.73 3.29 0.95 4294967295
8.87 2.69 0.48 4294967295
5.64 8.27 1.78 4294967295
5.44 9.05 0.97 4294967295
8.77 2.19 10.44 4294967295
9.50 2.05 0.96 4294967295
5.86 10.25 1.85 4294967295
8.65 2.67 0.45 4294967295
3.45 4.10 6.24 4294967295
5.40 10.04 2.36 4294967295
3.05 3.89 5.14 4294967295
8.97 7.33 -0.85 4294967295
10.08 2.04 9.36 4294967295
9.07 7.18 -0.79 4294967295
8.30 1.48 9.41 4294967295
8.12 2.99 2.02 4294967295
5.84 9.82 2.71 4294967295
9.74 1.58 10.08 4294967295
9.08 2.88 0.62 4294967295
9.08 6.78 -0.57 4294967295
8.65 8.42 0.13 4294967295
8.30 1.86 2.16 4294967295
9.56 6.90 0.33 4294967295
8.84 8.26 0.66 4294967295
3.75 5.08 6.13 4294967295
7.88 1.82 1.43 4294967295
9.50 2.71 10.17 4294967295
9.29 7.69 -0.67 4294967295
8.54 2.62 2.39 4294967295
7.87 7.56 -0.36 4294967295
9.63 2.67 1.21 4294967295
7.89 2.02 1.87 4294967295
9.25 1.10 9.57 4294967295
3.95 3.51 5.78 4294967295
9.38 3.08 1.15 4294967295
3.75 4.03 6.29 4294967295
9.48 7.98 0.49 4294967295
5.96 9.36 0.91 4294967295
9.19 7.53 -0.77 4294967295
4.70 3.90 5.20 4294967295
4.68 4.99 5.26 4294967295
6.35 8.50 1.54 4294967295
9.31 7.59 0.92 4294967295
7.89 1.82 1.50 4294967295
3.97 4.12 4.43 4294967295
8.09 2.31 2.22 4294967295
9.58 7.90 0.38 4294967295
9.27 1.09 9.50 4294967295
5.80 10.09 2.44 4294967295
7.76 7.25 0.21 4294967295
8.81 2.70 0.47 4294967295
9.05 1.73 2.05 4294967295
9.35 2.89 10.03 4294967295
4.02 5.19 6.01 4294967295
8.43 2.62 8.99 4294967295
8.26 1.77 2.06 4294967295
9.08 2.17 8.51 4294967295
5.48 10.13 2.25 4294967295
8.60 3.41 1.46 4294967295
9.15 6.62 0.55 4294967295
3.97 4.58 6.36 4294967295
9.27 2.72 2.17 4294967295
5.21 9.79 1.27 4294967295
8.75 1.14 9.50 4294967295
9.62 7.69 0.50 4294967295
5.88 9.21 2.88 4294967295
3.32 5.26 5.48 4294967295
4.02 4.81 4.47 4294967295
9.69 1.28 9.47 4294967295
3.13 4.17 4.75 4294967295
8.25 2.61 2.30 4294967295
9.03 6.47 0.21 4294967295
9.65 2.18 1.53 4294967295
8.47 1.44 1.52 4294967295
9.07 2.32 10.47 4294967295
4.81 9.26 1.66 4294967295
3.49 3.70 4.80 4294967295
9.54 7.26 0.70 4294967295
9.64 7.40 -0.30 4294967295
8.75 3.04 0.64 4294967295
5.77 9.24 2.89 4294967295
9.11 1.95 0.64 4294967295
3.58 4.30 4.43 4294967295
3.32 3.73 5.85 4294967295
6.77 9.06 1.84 4294967295
9.33 3.16 1.22 4294967295
3.79 3.76 4.63 4294967295
6.78 9.17 1.89 4294967295
3.59 3.84 6.15 4294967295
6.54 9.20 1.23 4294967295
4.47 4.37 6.17 4294967295
9.58 7.22 -0.38 4294967295
8.10 2.20 2.20 4294967295
4.91 9.70 1.73 4294967295
8.47 8.09 -0.58 4294967295
7.97 8.05 -0.04 4294967295
9.01 1.78 0.71 4294967295
4.07 3.70 4.72 4294967295
10.06 2.23 9.28 4294967295
8.78 6.91 0.98 4294967295
5.40 10.17 1.99 4294967295
8.69 2.16 8.59 4294967295
7.98 7.97 -0.24 4294967295
5.69 8.32 2.23 4294967295
6.33 8.83 2.61 4294967295
8.70 2.98 2.24 4294967295
9.12 1.57 8.65 4294967295
4.20 3.55 5.72 4294967295
4.22 3.61 5.86 4294967295
5.46 8.86 2.75 4294967295
9.68 2.74 9.98 4294967295
8.56 8.23 0.68 4294967295
8.60 8.01 -0.68 4294967295
9.37 2.97 0.94 4294967295
8.30 7.33 1.01 4294967295
6.38 8.86 2.60 4294967295
5.39 9.89 1.23 4294967295
5.34 10.15 1.86 4294967295
6.06 8.78 2.73 4294967295
4.04 4.39 6.37 4294967295
8.79 3.28 1.91 4294967295
6.15 10.00 1.33 4294967295
9.44 2.67 8.77 4294967295
5.71 9.26 2.88 4294967295
5.19 10.05 1.94 4294967295
8.24 2.79 0.61 4294967295
9.61 2.19 1.73 4294967295
6.24 8.55 1.33 4294967295
5.51 9.22 0.93 4294967295
3.78 4.04 4.46 4294967295
9.01 3.08 9.55 4294967295
8.89 2.97 9.10 4294967295
3.80 3.46 5.11 4294967295
5.42 9.43 0.97 4294967295
5.60 8.55 1.21 4294967295
8.00 7.04 0.67 4294967295
7.81 2.84 1.20 4294967295
2.95 4.26 5.76 4294967295
6.25 9.14 2.77 4294967295
9.18 1.48 10.30 4294967295
5.66 9.97 2.58 4294967295
4.36 5.24 5.67 4294967295
9.97 2.34 9.10 4294967295
4.93 9.10 1.40 4294967295
5.75 9.99 2.56 4294967295
8.44 1.50 1.11 4294967295
6.35 8.74 2.54 4294967295
4.18 5.33 5.64 4294967295
8.11 8.20 0.13 4294967295
6.16 10.00 2.45 4294967295
5.77 8.28 2.11 4294967295
3.36 4.04 6.15 4294967295
3.66 5.38 5.58 4294967295
9.91 2.58 9.22 4294967295
6.68 9.16 1.44 4294967295
7.98 7.11 0.69 4294967295
9.28 3.14 1.08 4294967295
9.50 1.35 10.06 4294967295
8.15 6.66 -0.14 4294967295
9.21 2.26 8.53 4294967295
9.64 7.71 -0.19 4294967295
5.87 9.58 2.83 4294967295
9.18 7.23 0.99 4294967295
9.38 1.34 10.12 4294967295
8.70 1.62 8.71 4294967295
2.98 4.89 5.36 4294967295
3.97 3.44 5.55 4294967295
8.96 8.29 -0.32 4294967295
8.60 2.48 10.28 4294967295
6.76 9.21 2.13 4294967295
3.07 4.05 4.91 4294967295
4.36 3.58 5.19 4294967295
4.95 9.75 2.09 4294967295
5.54 8.41 2.36 4294967295
8.50 6.93 0.95 4294967295
3.12 5.06 5.20 4294967295
3.21 4.02 4.74 4294967295
7.71 2.43 1.65 4294967295
9.44 1.14 9.54 4294967295
3.69 3.82 4.60 4294967295
3.40 4.84 4.60 4294967295
8.65 1.37 10.04 4294967295
5.61 8.57 2.60 4294967295
8.03 8.07 0.41 4294967295
9.24 3.16 1.78 4294967295
4.18 5.36 5.23 4294967295
8.99 6.98 -0.74 4294967295
9.37 2.97 1.89 4294967295
4.73 4.90 5.24 4294967295
6.48 9.07 1.18 4294967295
3.63 3.75 4.68 4294967295
4.70 4.88 5.68 4294967295
