VERSION 0.7
FIELDS x y z rgba
SIZE 4 4 4 4
TYPE F F F U
COUNT 1 1 1 1
WIDTH 1627
HEIGHT 1
VIEWPOINT 0 0 0 1 0 0 0
POINTS 1627
DATA ascii
10.18 27.58 12.88 4294967295
-15.55 34.94 28.28 4294967295
-9.12 1.45 78.92 4294967295
10.34 -34.31 57.77 4294967295
30.80 25.10 44.57 4294967295
15.38 -36.71 43.99 4294967295
-7.40 16.90 75.49 4294967295
24.40 29.44 28.27 4294967295
-35.36 16.21 49.34 4294967295
19.32 -28.02 61.02 4294967295
18.66 -28.61 60.82 4294967295
0.19 -36.18 57.07 4294967295
18.88 31.76 24.68 4294967295
20.57 -22.44 14.05 4294967295
-3.87 13.72 77.37 4294967295
-23.44 2.52 7.68 4294967295
22.58 -32.29 46.91 4294967295
6.30 -39.48 41.34 4294967295
37.99 -12.34 42.12 4294967295
-14.10 -35.79 29.02 4294967295
8.02 16.95 4.67 4294967295
15.24 -28.06 64.09 4294967295
-29.20 14.57 63.13 4294967295
22.99 21.08 65.04 4294967295
14.21 -14.72 74.37 4294967295
2.57 -36.78 55.51 4294967295
-18.28 35.49 42.49 4294967295
-11.93 -31.38 18.26 4294967295
-37.20 14.48 37.43 4294967295
36.01 -17.38 41.22 4294967295
3.62 -39.61 35.73 4294967295
39.06 -4.36 47.41 4294967295
27.46 -26.07 27.10 4294967295
-26.93 5.60 10.96 4294967295
-12.25 -31.30 61.68 4294967295
-16.93 -34.34 28.42 4294967295
38.39 -7.58 31.72 4294967295
9.56 9.08 2.23 4294967295
-38.34 11.22 41.99 4294967295
28.72 -15.69 16.99 4294967295
-17.69 -10.98 74.16 4294967295
-3.85 -39.81 40.55 4294967295
-26.70 -29.76 41.04 4294967295
14.53 36.73 33.68 4294967295
-10.57 -20.55 7.35 4294967295
39.69 -4.54 37.90 4294967295
-22.17 16.41 11.03 4294967295
-6.48 31.89 16.74 4294967295
0.26 29.66 66.84 4294967295
22.94 30.22 52.68 4294967295
-2.38 -34.54 19.97 4294967295
0.57 37.90 52.77 4294967295
18.40 15.59 8.09 4294967295
12.21 10.99 76.47 4294967295
7.76 1.51 0.79 4294967295
12.45 -25.89 67.83 4294967295
-35.18 -15.18 28.53 4294967295
12.22 9.17 3.03 4294967295
27.71 7.20 12.06 4294967295
-21.28 18.65 68.28 4294967295
-19.12 -1.30 4.89 4294967295
2.49 -6.87 0.67 4294967295
-15.88 34.11 26.42 4294967295
-20.08 10.76 72.88 4294967295
23.20 28.72 24.61 4294967295
16.31 -36.43 42.61 4294967295
10.13 9.40 2.46 4294967295
-36.49 -16.37 40.37 4294967295
-26.78 10.41 67.82 4294967295
-7.09 -12.11 2.54 4294967295
8.22 -16.10 75.68 4294967295
-3.34 29.88 66.38 4294967295
-35.33 13.59 27.08 4294967295
11.87 -33.13 59.02 4294967295
32.73 10.10 60.67 4294967295
-38.59 -9.39 44.74 4294967295
10.17 36.96 28.59 4294967295
-8.05 22.28 7.77 4294967295
-14.86 37.11 41.52 4294967295
33.66 -13.17 22.87 4294967295
-6.48 -37.25 53.06 4294967295
-18.56 24.63 65.47 4294967295
-10.79 8.04 2.33 4294967295
-3.27 -19.15 5.03 4294967295
-22.54 -11.60 9.06 4294967295
-17.50 35.50 45.77 4294967295
32.69 -14.85 57.62 4294967295
26.35 -29.78 44.38 4294967295
27.38 28.59 45.74 4294967295
-21.48 32.30 49.78 4294967295
2.61 -26.73 69.65 4294967295
-12.87 12.69 4.32 4294967295
24.76 -30.48 32.35 4294967295
1.01 -10.44 1.40 4294967295
-18.86 -35.00 35.59 4294967295
29.90 23.95 28.51 4294967295
-25.13 12.81 68.36 4294967295
25.10 0.69 71.14 4294967295
6.09 18.33 4.97 4294967295
20.39 20.86 67.37 4294967295
2.11 1.52 79.91 4294967295
-32.47 -11.83 60.14 4294967295
-28.70 17.92 61.34 4294967295
21.53 0.03 6.29 4294967295
-16.09 -21.45 10.32 4294967295
-13.06 37.28 33.68 4294967295
8.80 -9.12 2.06 4294967295
39.40 -6.25 37.04 4294967295
32.11 17.90 24.23 4294967295
-31.47 -24.30 44.35 4294967295
-5.49 1.07 79.61 4294967295
34.78 -13.44 54.47 4294967295
-20.20 -21.76 66.80 4294967295
-0.39 -28.14 68.43 4294967295
31.28 -6.59 15.96 4294967295
28.09 16.24 63.39 4294967295
-19.28 33.91 48.85 4294967295
-4.00 32.20 16.61 4294967295
27.14 29.30 37.70 4294967295
28.87 7.41 66.67 4294967295
-2.42 12.39 77.95 4294967295
29.77 14.00 62.75 4294967295
2.80 10.47 78.50 4294967295
7.86 21.38 7.12 4294967295
39.32 4.78 34.40 4294967295
14.07 -32.22 20.93 4294967295
27.75 -6.29 11.88 4294967295
-39.34 7.16 38.92 4294967295
3.76 -34.95 59.10 4294967295
-3.72 -12.89 77.68 4294967295
11.43 -37.53 32.20 4294967295
19.13 -29.92 21.59 4294967295
-13.98 5.67 2.95 4294967295
21.81 21.49 65.74 4294967295
-26.74 7.00 11.09 4294967295
-3.18 36.09 23.04 4294967295
30.44 0.45 14.05 4294967295
-30.03 26.15 43.76 4294967295
1.90 15.20 3.05 4294967295
-24.90 -16.25 66.76 4294967295
-8.15 38.60 33.39 4294967295
-25.58 -23.83 20.57 4294967295
14.20 -34.91 26.60 4294967295
-2.11 -38.67 29.99 4294967295
-20.27 6.97 6.23 4294967295
-34.05 16.65 52.79 4294967295
-39.37 -6.34 36.90 4294967295
-39.97 0.95 41.18 4294967295
-22.51 -28.23 57.22 4294967295
-23.63 9.83 9.26 4294967295
-16.07 35.46 49.19 4294967295
36.28 -10.96 27.20 4294967295
37.23 -4.37 53.95 4294967295
-9.57 38.21 33.07 4294967295
36.68 -1.86 55.85 4294967295
8.88 30.08 64.83 4294967295
2.91 -15.53 3.25 4294967295
-16.64 22.00 68.97 4294967295
15.65 4.26 3.43 4294967295
12.15 34.49 23.80 4294967295
27.85 -17.92 62.44 4294967295
-38.95 8.91 38.20 4294967295
3.16 -12.72 2.21 4294967295
-34.61 -19.72 36.30 4294967295
20.15 -21.47 67.07 4294967295
36.64 -2.23 24.10 4294967295
-10.15 2.28 1.38 4294967295
25.56 1.15 70.75 4294967295
-13.53 -37.20 45.73 4294967295
10.45 -30.65 63.48 4294967295
7.73 -18.37 5.32 4294967295
13.16 -37.28 33.91 4294967295
33.87 -20.96 36.36 4294967295
13.89 20.02 8.28 4294967295
14.44 32.68 22.01 4294967295
-21.76 14.09 70.46 4294967295
39.16 5.60 45.91 4294967295
10.33 -35.56 24.88 4294967295
-36.57 12.88 30.16 4294967295
35.59 18.08 42.50 4294967295
39.38 -5.59 35.75 4294967295
-35.16 12.98 53.98 4294967295
-26.42 1.93 10.03 4294967295
26.63 -27.17 27.64 4294967295
12.65 3.16 2.18 4294967295
-16.17 18.91 71.32 4294967295
-37.46 -3.00 53.71 4294967295
23.26 23.68 62.32 4294967295
12.27 -37.15 48.30 4294967295
38.70 -10.09 40.80 4294967295
-23.80 30.21 29.01 4294967295
-15.23 7.77 3.84 4294967295
26.78 5.80 69.14 4294967295
-35.92 12.76 52.12 4294967295
-7.05 39.28 37.30 4294967295
-16.66 -35.63 32.74 4294967295
-17.16 -27.71 63.18 4294967295
-10.67 -27.95 66.56 4294967295
-1.06 22.69 7.07 4294967295
-34.14 0.03 19.16 4294967295
29.50 26.66 35.60 4294967295
35.33 -7.52 22.81 4294967295
7.94 -13.14 3.06 4294967295
24.94 23.63 60.49 4294967295
2.97 -37.94 27.68 4294967295
16.87 12.64 73.99 4294967295
-10.33 -35.13 56.09 4294967295
-14.18 18.80 72.34 4294967295
36.14 -13.61 29.58 4294967295
21.12 -11.39 72.00 4294967295
25.32 -8.37 10.19 4294967295
24.08 10.82 70.05 4294967295
-22.56 0.09 73.03 4294967295
8.80 -34.82 57.60 4294967295
22.11 -7.37 7.49 4294967295
21.28 -16.81 10.59 4294967295
-39.40 3.03 46.21 4294967295
-28.29 -25.58 27.93 4294967295
-15.12 24.00 68.20 4294967295
-22.07 -31.23 28.26 4294967295
-36.87 -8.53 27.05 4294967295
-32.49 17.95 54.90 4294967295
10.66 -6.37 1.98 4294967295
29.97 -2.27 13.61 4294967295
-32.75 22.80 42.76 4294967295
-32.26 -23.43 36.76 4294967295
8.65 -35.96 24.76 4294967295
24.72 1.55 71.41 4294967295
5.89 -25.49 70.26 4294967295
23.94 -14.41 11.38 4294967295
22.28 28.95 56.30 4294967295
8.77 -12.40 3.00 4294967295
0.98 -39.23 32.26 4294967295
-26.56 20.73 18.44 4294967295
-26.36 13.99 13.36 4294967295
-38.31 -6.88 49.24 4294967295
3.07 38.80 30.79 4294967295
-15.61 -2.58 3.26 4294967295
14.67 -36.22 31.48 4294967295
3.07 -39.08 32.04 4294967295
-39.00 -6.58 45.96 4294967295
-28.55 17.15 17.84 4294967295
-6.17 35.11 58.14 4294967295
11.43 31.88 61.29 4294967295
-22.27 13.55 9.66 4294967295
-38.18 11.22 44.10 4294967295
-24.98 31.16 42.24 4294967295
-22.69 -24.74 18.24 4294967295
24.68 30.65 47.20 4294967295
8.76 35.99 24.90 4294967295
20.86 -26.40 61.63 4294967295
-17.56 35.89 38.16 4294967295
23.88 25.25 59.80 4294967295
-27.99 -7.00 12.30 4294967295
16.48 34.54 28.36 4294967295
-2.93 10.50 78.49 4294967295
-30.81 -7.16 64.48 4294967295
10.13 -38.60 37.30 4294967295
15.36 -34.05 54.32 4294967295
37.37 -9.84 29.69 4294967295
1.73 21.13 6.08 4294967295
10.61 0.80 78.56 4294967295
15.42 36.83 37.62 4294967295
-0.84 -28.46 11.90 4294967295
-34.08 20.56 35.97 4294967295
-23.85 -16.97 67.26 4294967295
-17.40 20.97 69.28 4294967295
-16.03 10.22 75.19 4294967295
-31.27 -21.24 26.93 4294967295
26.81 17.97 16.37 4294967295
-23.51 -16.54 67.82 4294967295
27.55 7.72 12.05 4294967295
24.82 -16.83 13.53 4294967295
-11.19 -2.86 1.70 4294967295
18.20 25.21 65.16 4294967295
3.28 -6.97 79.25 4294967295
-13.05 0.91 77.80 4294967295
-38.16 0.43 28.00 4294967295
-29.08 -12.95 64.22 4294967295
-30.20 24.49 49.37 4294967295
26.28 16.57 14.81 4294967295
-15.38 16.04 73.26 4294967295
-27.44 -15.30 64.76 4294967295
37.09 -13.53 33.60 4294967295
-25.81 -17.88 15.22 4294967295
12.36 -38.02 38.62 4294967295
1.56 0.62 0.04 4294967295
34.13 19.21 48.13 4294967295
22.03 5.18 72.98 4294967295
19.98 -25.97 62.94 4294967295
-28.52 23.28 24.37 4294967295
13.97 -20.15 8.40 4294967295
21.65 -32.43 48.91 4294967295
-0.51 5.51 79.61 4294967295
4.64 -31.01 64.84 4294967295
12.95 -10.90 3.76 4294967295
-3.92 0.88 0.20 4294967295
-17.86 -35.37 34.51 4294967295
20.09 -10.67 72.90 4294967295
-9.56 -27.24 12.31 4294967295
24.87 25.98 22.50 4294967295
-17.52 15.05 7.34 4294967295
29.12 8.83 14.03 4294967295
39.71 2.88 36.10 4294967295
26.42 29.99 38.35 4294967295
24.67 16.21 13.01 4294967295
-18.76 -7.17 5.41 4294967295
16.26 -8.60 4.48 4294967295
19.45 28.44 60.31 4294967295
38.45 -6.99 48.54 4294967295
-13.40 -37.69 39.80 4294967295
-0.05 -27.37 10.83 4294967295
-23.38 -32.45 39.78 4294967295
-9.80 -0.24 78.78 4294967295
-0.48 -38.59 29.47 4294967295
5.79 -35.53 22.55 4294967295
-28.84 26.10 49.33 4294967295
-19.82 0.36 5.26 4294967295
-16.76 -36.13 43.71 4294967295
35.82 10.42 54.43 4294967295
4.35 -5.81 0.66 4294967295
23.81 -16.81 12.60 4294967295
2.62 -30.61 65.62 4294967295
-26.21 14.60 66.46 4294967295
-23.18 31.58 31.92 4294967295
19.99 23.75 14.78 4294967295
3.17 31.07 64.99 4294967295
-10.34 20.00 73.06 4294967295
28.82 -27.70 41.53 4294967295
-25.20 -30.19 47.31 4294967295
36.69 7.80 26.12 4294967295
-36.75 4.18 55.23 4294967295
13.63 -36.54 31.12 4294967295
-38.39 -5.34 30.13 4294967295
15.81 30.06 18.87 4294967295
-29.68 -17.83 60.03 4294967295
8.73 -35.83 55.50 4294967295
-0.85 39.27 47.55 4294967295
10.97 -33.15 59.51 4294967295
-13.99 -7.29 76.76 4294967295
29.23 27.11 43.26 4294967295
14.39 18.34 72.51 4294967295
30.63 25.54 43.11 4294967295
-0.57 36.66 55.98 4294967295
4.12 16.24 76.32 4294967295
-35.05 19.25 41.15 4294967295
0.47 28.23 68.33 4294967295
-19.29 -27.40 61.84 4294967295
-10.01 -8.66 2.25 4294967295
-9.06 -37.78 30.49 4294967295
18.42 34.90 46.53 4294967295
-32.49 -10.91 60.62 4294967295
-23.78 -9.76 9.35 4294967295
35.58 -2.37 21.88 4294967295
24.44 -22.59 17.81 4294967295
16.20 34.89 29.04 4294967295
35.59 13.15 27.35 4294967295
16.03 -30.61 60.16 4294967295
21.14 -9.65 72.56 4294967295
-27.32 -8.56 67.94 4294967295
-22.49 -32.73 44.76 4294967295
27.28 -27.14 29.08 4294967295
-8.53 36.49 26.01 4294967295
29.80 15.29 18.13 4294967295
-12.76 37.05 48.01 4294967295
32.46 6.40 62.48 4294967295
13.64 -35.03 53.66 4294967295
-19.57 -31.45 55.09 4294967295
7.30 13.09 2.92 4294967295
13.93 8.80 3.55 4294967295
-36.65 -8.95 26.70 4294967295
-13.35 36.56 49.22 4294967295
36.64 3.76 24.40 4294967295
-2.22 -11.79 78.16 4294967295
-21.95 33.41 41.24 4294967295
6.42 -20.57 6.30 4294967295
-21.76 -29.87 55.30 4294967295
22.37 20.57 13.99 4294967295
-25.96 -5.87 69.86 4294967295
-38.82 -8.83 43.86 4294967295
-23.09 -22.73 63.45 4294967295
30.61 2.60 14.38 4294967295
10.68 -35.31 24.55 4294967295
-30.02 7.25 14.58 4294967295
2.61 -1.00 79.90 4294967295
-4.58 36.44 55.86 4294967295
-32.83 5.56 62.17 4294967295
-13.97 2.03 77.42 4294967295
-3.26 31.63 15.73 4294967295
-1.38 25.76 9.43 4294967295
16.15 5.33 3.79 4294967295
17.18 1.02 3.89 4294967295
17.44 -17.43 8.51 4294967295
-21.56 -4.43 73.40 4294967295
0.41 -19.41 5.03 4294967295
-24.13 6.75 8.82 4294967295
34.84 -4.04 20.76 4294967295
5.15 14.68 76.85 4294967295
-21.64 -17.98 68.43 4294967295
22.78 -24.18 62.29 4294967295
-9.34 38.71 43.82 4294967295
37.85 4.55 27.88 4294967295
2.81 0.24 0.10 4294967295
27.19 24.56 23.95 4294967295
-7.24 31.32 16.20 4294967295
10.89 -8.38 2.43 4294967295
-10.55 17.37 74.45 4294967295
3.36 -25.74 70.43 4294967295
39.17 -2.67 32.34 4294967295
22.82 27.14 58.52 4294967295
38.63 -8.70 45.68 4294967295
0.37 -29.85 66.63 4294967295
-25.26 5.35 9.45 4294967295
-36.15 -2.31 56.97 4294967295
-15.14 -31.85 58.87 4294967295
-24.12 21.44 16.36 4294967295
38.10 9.81 32.78 4294967295
3.06 -39.22 32.74 4294967295
30.31 11.13 63.61 4294967295
31.33 -24.85 39.03 4294967295
-38.95 -8.85 42.23 4294967295
-18.26 -35.35 44.08 4294967295
-30.53 7.35 64.78 4294967295
-15.45 -22.12 10.47 4294967295
27.09 -3.20 69.25 4294967295
18.53 -31.33 23.42 4294967295
34.77 -5.75 21.08 4294967295
-26.87 -29.63 40.70 4294967295
-6.45 -37.57 52.12 4294967295
-23.90 -12.40 10.42 4294967295
12.44 17.08 6.04 4294967295
-32.64 -2.17 16.98 4294967295
27.34 17.39 16.55 4294967295
-22.19 33.16 42.75 4294967295
-3.28 39.22 47.16 4294967295
27.43 28.87 43.75 4294967295
27.55 -13.60 14.38 4294967295
-33.70 -21.48 38.41 4294967295
38.68 8.38 45.80 4294967295
23.66 6.64 71.56 4294967295
11.87 -37.98 35.92 4294967295
-9.08 -7.28 78.27 4294967295
37.18 8.69 51.93 4294967295
-8.03 -39.10 37.47 4294967295
11.87 -11.52 76.42 4294967295
32.33 -16.41 23.10 4294967295
-21.32 -32.95 47.73 4294967295
35.79 -17.86 40.44 4294967295
1.60 -37.86 27.18 4294967295
6.98 25.10 70.35 4294967295
-5.09 -0.88 0.34 4294967295
-32.95 0.96 62.65 4294967295
12.92 6.95 77.21 4294967295
17.10 17.30 8.25 4294967295
-34.96 -17.67 48.11 4294967295
28.30 -28.26 39.70 4294967295
-39.21 -3.96 33.14 4294967295
7.08 37.15 26.98 4294967295
-11.15 25.21 68.99 4294967295
-26.06 -23.55 20.87 4294967295
35.60 6.44 57.05 4294967295
3.09 34.07 19.27 4294967295
7.92 35.04 57.59 4294967295
13.09 -20.15 71.98 4294967295
-34.20 -4.97 19.85 4294967295
21.62 -21.20 66.14 4294967295
-10.79 -35.64 54.62 4294967295
7.70 0.70 0.75 4294967295
-13.08 29.62 16.51 4294967295
-18.27 -21.48 11.63 4294967295
-2.41 35.69 22.10 4294967295
16.36 -8.02 4.39 4294967295
-4.92 39.46 44.33 4294967295
-33.51 -21.82 40.89 4294967295
-38.36 4.78 50.27 4294967295
7.49 38.41 48.29 4294967295
12.33 -35.72 53.12 4294967295
-10.13 18.22 5.86 4294967295
0.68 39.26 47.62 4294967295
4.55 -2.36 0.33 4294967295
-35.18 14.27 52.60 4294967295
23.33 -3.34 72.32 4294967295
-20.11 -22.88 65.92 4294967295
-38.54 1.21 50.65 4294967295
-9.77 36.85 52.11 4294967295
27.73 -22.30 21.74 4294967295
-4.01 -31.79 63.95 4294967295
26.52 28.32 30.28 4294967295
-2.38 39.79 36.62 4294967295
-33.37 -6.44 61.09 4294967295
-35.91 10.18 54.40 4294967295
13.71 -13.60 4.97 4294967295
13.96 15.00 74.36 4294967295
5.94 -6.90 78.95 4294967295
4.77 8.36 78.82 4294967295
-12.18 -36.44 28.88 4294967295
1.51 18.12 75.63 4294967295
-2.84 -18.20 75.50 4294967295
-11.56 17.41 74.11 4294967295
10.81 18.06 74.02 4294967295
30.59 14.24 18.52 4294967295
31.53 -22.95 48.88 4294967295
-8.48 -38.52 46.64 4294967295
-34.49 -6.83 59.07 4294967295
3.63 25.04 70.98 4294967295
-15.02 28.19 64.08 4294967295
36.58 12.44 50.36 4294967295
-18.85 -31.27 56.33 4294967295
13.11 37.52 35.52 4294967295
-34.78 -17.64 31.09 4294967295
-22.67 25.16 18.72 4294967295
-29.90 25.20 31.60 4294967295
17.90 -29.33 19.52 4294967295
7.81 -30.07 65.20 4294967295
23.74 10.89 70.30 4294967295
9.63 38.76 37.74 4294967295
3.20 -7.95 0.93 4294967295
3.49 39.85 39.90 4294967295
20.25 10.57 7.16 4294967295
-34.77 13.47 54.48 4294967295
-14.35 -29.21 16.74 4294967295
-22.00 -24.14 16.91 4294967295
-1.76 -20.23 74.46 4294967295
23.69 16.69 67.58 4294967295
-12.97 16.24 5.82 4294967295
9.10 -35.10 56.88 4294967295
34.01 5.12 60.43 4294967295
-15.55 36.62 35.83 4294967295
2.01 -36.73 24.29 4294967295
22.90 -16.27 11.53 4294967295
1.43 17.35 3.99 4294967295
25.91 30.16 44.39 4294967295
10.80 -29.34 64.95 4294967295
-6.47 -31.53 63.75 4294967295
5.42 28.88 67.14 4294967295
11.74 -37.41 32.06 4294967295
-30.13 -6.10 14.40 4294967295
7.36 -7.16 78.66 4294967295
38.24 11.53 37.84 4294967295
-25.80 0.73 70.56 4294967295
-11.76 -34.27 23.04 4294967295
0.77 19.33 4.99 4294967295
36.49 14.87 46.90 4294967295
-1.10 38.92 49.16 4294967295
11.04 33.49 21.12 4294967295
0.10 25.15 71.11 4294967295
-24.52 25.74 21.65 4294967295
13.57 34.23 55.62 4294967295
31.14 25.01 42.26 4294967295
-6.59 -21.80 7.12 4294967295
15.61 8.67 75.80 4294967295
15.53 23.68 11.75 4294967295
-33.44 -21.68 43.43 4294967295
2.41 -10.12 1.38 4294967295
10.87 -24.23 10.08 4294967295
-33.28 1.94 17.89 4294967295
22.09 26.79 59.86 4294967295
-7.33 -4.53 79.06 4294967295
-18.20 15.01 7.70 4294967295
-1.05 25.77 9.43 4294967295
-9.39 -34.54 57.86 4294967295
-19.94 -29.64 22.00 4294967295
-37.48 2.46 26.25 4294967295
-6.88 39.40 40.04 4294967295
-31.00 19.33 23.71 4294967295
-16.08 34.91 51.07 4294967295
-34.49 -4.48 20.24 4294967295
19.31 15.84 8.75 4294967295
-18.49 -8.23 5.50 4294967295
18.24 -27.17 63.00 4294967295
34.11 9.59 21.44 4294967295
-17.64 23.31 12.70 4294967295
36.51 -16.03 36.80 4294967295
-26.27 -12.94 67.25 4294967295
3.70 -39.54 35.19 4294967295
25.83 7.21 69.68 4294967295
-15.57 -23.96 67.99 4294967295
-13.78 -21.68 70.66 4294967295
-9.55 35.34 56.11 4294967295
23.07 -7.41 71.82 4294967295
-4.19 35.15 58.62 4294967295
6.37 22.21 72.65 4294967295
-38.34 -3.23 29.07 4294967295
-16.85 33.72 53.39 4294967295
29.22 -25.52 49.74 4294967295
-13.97 18.30 72.71 4294967295
21.31 -23.59 15.72 4294967295
-27.29 -15.81 64.60 4294967295
-30.79 -25.49 38.64 4294967295
-5.65 32.92 62.01 4294967295
-4.20 -27.61 68.64 4294967295
34.79 17.20 49.70 4294967295
-2.49 -12.29 77.98 4294967295
22.80 -18.24 12.66 4294967295
33.07 3.96 17.85 4294967295
-5.78 -18.74 5.14 4294967295
34.71 -19.67 42.82 4294967295
-9.43 8.70 2.12 4294967295
13.81 2.50 2.54 4294967295
-2.41 -19.04 75.09 4294967295
-33.94 -20.82 36.17 4294967295
39.28 -7.58 39.85 4294967295
-23.23 14.91 68.95 4294967295
1.53 39.97 40.55 4294967295
-31.73 19.98 26.08 4294967295
28.88 25.34 51.14 4294967295
13.07 -37.49 44.85 4294967295
31.06 22.98 29.65 4294967295
33.42 -21.92 38.39 4294967295
-3.88 27.43 11.15 4294967295
-2.36 -39.62 35.06 4294967295
-7.03 -34.21 59.49 4294967295
-10.76 5.02 1.80 4294967295
-24.31 -24.65 19.96 4294967295
-38.71 7.89 46.30 4294967295
-39.91 2.30 41.27 4294967295
-19.89 14.72 8.57 4294967295
-19.88 -34.05 46.75 4294967295
-22.96 -16.30 68.41 4294967295
19.89 11.13 7.13 4294967295
37.38 4.09 53.64 4294967295
-21.69 30.80 26.54 4294967295
39.29 7.32 41.71 4294967295
-11.08 -23.41 9.52 4294967295
-23.07 32.02 33.46 4294967295
-35.32 -8.56 56.70 4294967295
18.55 23.49 13.47 4294967295
15.91 -0.68 76.69 4294967295
-15.29 -6.48 3.61 4294967295
-21.31 33.26 46.30 4294967295
12.51 37.57 34.31 4294967295
-35.68 11.66 53.82 4294967295
18.54 15.92 71.67 4294967295
33.38 -19.61 29.93 4294967295
-16.31 -26.83 64.78 4294967295
16.66 36.31 37.91 4294967295
5.17 25.15 9.32 4294967295
8.15 -37.63 29.17 4294967295
-25.47 -13.80 67.59 4294967295
26.09 19.15 63.50 4294967295
-1.35 -39.95 41.46 4294967295
13.18 36.58 30.60 4294967295
13.05 11.41 76.05 4294967295
-15.56 11.16 75.12 4294967295
-39.32 -5.38 34.97 4294967295
-28.99 23.68 54.11 4294967295
4.50 28.00 68.21 4294967295
-30.23 0.76 13.82 4294967295
14.33 34.76 53.66 4294967295
11.81 36.34 51.82 4294967295
25.72 -12.92 12.22 4294967295
31.42 21.83 28.34 4294967295
8.77 39.00 38.57 4294967295
28.96 16.88 61.83 4294967295
26.10 21.84 18.98 4294967295
-24.58 -20.94 63.60 4294967295
-10.38 37.93 47.31 4294967295
39.20 7.93 40.65 4294967295
-20.71 33.09 48.72 4294967295
17.23 -21.45 69.04 4294967295
-6.75 39.33 37.21 4294967295
-25.16 30.00 31.85 4294967295
-32.31 10.64 18.95 4294967295
-33.78 6.19 60.51 4294967295
0.35 40.00 39.63 4294967295
31.03 -19.99 55.42 4294967295
5.19 -38.86 47.92 4294967295
-36.51 -8.53 53.93 4294967295
-30.54 -11.86 17.04 4294967295
-36.75 -10.99 51.34 4294967295
34.74 -18.22 32.18 4294967295
7.34 3.47 0.83 4294967295
33.16 7.37 18.88 4294967295
23.94 31.20 47.34 4294967295
-34.41 0.90 60.37 4294967295
29.68 -26.61 43.33 4294967295
-26.21 29.23 47.65 4294967295
25.12 5.91 9.44 4294967295
-37.07 9.92 51.27 4294967295
-27.76 13.99 65.17 4294967295
-21.42 8.74 72.63 4294967295
5.93 -39.33 35.79 4294967295
-13.25 20.44 8.27 4294967295
-18.35 -30.02 20.98 4294967295
-1.55 4.59 0.29 4294967295
6.41 -34.85 21.45 4294967295
27.89 12.08 14.00 4294967295
13.70 -34.10 24.22 4294967295
-27.90 -24.82 54.34 4294967295
-11.39 -28.83 65.28 4294967295
27.22 29.23 37.89 4294967295
3.34 39.85 41.05 4294967295
-7.57 35.84 56.08 4294967295
19.94 10.84 7.06 4294967295
-7.78 7.64 78.49 4294967295
-26.30 18.50 16.22 4294967295
-20.00 -32.70 28.56 4294967295
-26.54 29.93 40.09 4294967295
36.29 12.59 28.82 4294967295
20.71 22.74 65.57 4294967295
29.63 -24.57 29.13 4294967295
-23.63 -32.24 38.55 4294967295
-23.55 -16.98 67.51 4294967295
5.59 -31.82 16.42 4294967295
36.43 -16.29 37.21 4294967295
23.12 -31.51 48.49 4294967295
-24.43 -30.91 46.90 4294967295
0.16 -22.57 73.02 4294967295
-15.00 -30.22 18.51 4294967295
39.57 -1.55 34.35 4294967295
26.86 0.61 69.63 4294967295
29.94 -25.07 48.67 4294967295
34.68 -17.61 49.33 4294967295
-21.53 1.83 73.66 4294967295
-36.05 -15.31 48.12 4294967295
-24.91 -10.61 69.44 4294967295
-3.92 24.74 71.19 4294967295
-17.21 27.29 16.36 4294967295
-30.46 8.77 15.60 4294967295
23.78 -29.01 53.89 4294967295
35.47 -16.12 49.05 4294967295
25.59 -15.77 66.39 4294967295
-36.50 12.89 50.07 4294967295
17.96 -21.17 68.80 4294967295
-22.32 -26.08 60.53 4294967295
23.41 -5.18 7.98 4294967295
22.11 26.22 60.58 4294967295
30.77 20.84 25.22 4294967295
19.93 0.75 5.32 4294967295
19.45 -7.78 74.07 4294967295
38.92 -2.16 31.02 4294967295
-26.60 2.92 69.73 4294967295
29.92 -24.40 50.46 4294967295
29.52 -15.65 18.01 4294967295
21.03 2.78 73.91 4294967295
-28.97 23.21 25.09 4294967295
2.89 14.36 2.78 4294967295
39.03 -3.27 48.11 4294967295
-12.66 35.55 53.26 4294967295
-16.43 14.64 6.60 4294967295
-12.13 36.63 50.53 4294967295
12.96 8.42 3.10 4294967295
27.42 23.23 57.57 4294967295
29.31 7.78 66.09 4294967295
-30.47 -12.29 62.81 4294967295
4.52 28.83 67.36 4294967295
-12.81 22.80 70.26 4294967295
18.91 32.38 26.08 4294967295
35.51 -1.20 58.38 4294967295
6.38 39.43 37.81 4294967295
-12.92 36.82 48.81 4294967295
14.74 36.25 48.27 4294967295
-6.60 32.01 63.06 4294967295
18.89 -33.87 30.20 4294967295
15.78 -21.48 10.17 4294967295
22.29 26.56 20.06 4294967295
36.71 12.96 30.83 4294967295
-32.75 15.71 56.76 4294967295
36.86 -1.12 55.50 4294967295
13.79 33.54 23.12 4294967295
5.83 3.41 79.42 4294967295
-25.00 9.54 69.73 4294967295
-26.69 -2.38 10.30 4294967295
-38.36 -4.06 50.60 4294967295
-17.77 10.61 74.23 4294967295
-32.42 12.55 59.78 4294967295
24.49 -30.69 47.67 4294967295
13.86 -36.87 46.98 4294967295
-9.19 -32.82 19.07 4294967295
13.03 36.42 29.81 4294967295
-3.99 -29.44 13.22 4294967295
11.94 9.02 2.90 4294967295
4.05 32.53 62.92 4294967295
32.37 -0.55 63.49 4294967295
-26.28 18.78 63.60 4294967295
-15.97 -25.18 66.67 4294967295
-7.38 36.09 55.59 4294967295
23.00 -17.53 67.63 4294967295
5.87 -5.26 79.22 4294967295
33.25 22.06 37.18 4294967295
-18.07 -28.36 61.65 4294967295
-30.32 -13.56 62.29 4294967295
7.28 7.86 1.46 4294967295
-25.59 -27.99 52.71 4294967295
34.89 -1.72 20.51 4294967295
12.60 16.48 74.20 4294967295
16.18 -31.76 21.85 4294967295
29.86 24.23 51.03 4294967295
15.99 -35.23 50.15 4294967295
-17.46 20.93 69.27 4294967295
-31.49 -22.58 30.09 4294967295
26.36 -6.91 10.72 4294967295
14.24 -22.07 9.84 4294967295
-12.69 -2.87 77.83 4294967295
33.57 4.02 18.63 4294967295
-4.67 -18.81 5.01 4294967295
-26.42 12.15 67.47 4294967295
24.45 -29.60 51.22 4294967295
-14.42 -11.34 4.45 4294967295
39.50 5.16 43.63 4294967295
-27.90 -28.63 38.69 4294967295
-19.77 -26.23 62.83 4294967295
19.90 -14.82 71.37 4294967295
27.29 -14.94 14.86 4294967295
-14.77 -15.43 6.18 4294967295
38.08 -11.79 43.28 4294967295
-21.83 -31.75 29.26 4294967295
24.68 29.56 50.80 4294967295
7.42 -28.34 12.76 4294967295
25.66 20.87 17.50 4294967295
-1.94 -39.86 42.79 4294967295
-31.84 -19.88 26.18 4294967295
-11.04 -27.05 12.68 4294967295
-5.50 -15.56 3.56 4294967295
8.80 9.28 77.90 4294967295
36.37 6.81 55.19 4294967295
-6.37 39.35 43.33 4294967295
-15.61 -15.93 73.21 4294967295
-10.02 35.49 24.51 4294967295
-1.32 -4.57 79.72 4294967295
25.94 11.54 11.82 4294967295
0.24 19.67 5.17 4294967295
34.97 -18.62 34.49 4294967295
5.84 32.00 16.73 4294967295
-29.16 -21.85 56.49 4294967295
35.40 -8.91 56.35 4294967295
-39.46 5.68 43.23 4294967295
-7.09 -12.75 77.25 4294967295
-24.33 22.91 61.98 4294967295
-10.96 2.67 78.38 4294967295
29.05 -19.65 59.24 4294967295
6.88 -29.57 13.96 4294967295
14.99 35.38 28.89 4294967295
-27.15 -8.80 68.03 4294967295
26.16 9.95 11.43 4294967295
-22.75 -26.05 60.10 4294967295
-21.01 -22.78 14.71 4294967295
-38.32 -11.42 38.92 4294967295
3.20 34.35 19.75 4294967295
-9.68 31.05 16.71 4294967295
17.19 -31.66 22.62 4294967295
37.52 -2.56 53.63 4294967295
14.39 11.76 4.58 4294967295
32.94 1.92 62.61 4294967295
-19.00 -8.12 5.75 4294967295
-7.59 30.28 65.01 4294967295
23.34 23.34 17.41 4294967295
-36.79 15.29 36.47 4294967295
17.25 8.52 4.93 4294967295
4.85 9.56 1.46 4294967295
-8.34 22.77 8.19 4294967295
-11.09 -16.63 5.35 4294967295
-36.15 -7.56 55.37 4294967295
-29.10 22.28 23.97 4294967295
-11.25 14.41 4.42 4294967295
-39.30 -5.62 44.86 4294967295
-5.82 -28.93 13.00 4294967295
13.50 -29.15 63.83 4294967295
14.70 -15.42 73.85 4294967295
11.46 3.17 1.81 4294967295
-22.28 -19.85 13.36 4294967295
0.05 9.09 78.95 4294967295
15.29 16.42 6.88 4294967295
2.44 -1.45 79.90 4294967295
36.32 -10.53 53.03 4294967295
-22.91 15.91 11.33 4294967295
26.22 -23.04 20.46 4294967295
37.47 12.64 33.97 4294967295
-24.14 20.81 64.17 4294967295
0.04 37.56 53.77 4294967295
16.64 -31.60 58.02 4294967295
30.30 19.08 57.82 4294967295
8.37 -39.06 42.16 4294967295
28.37 -20.01 59.87 4294967295
18.57 -1.23 4.59 4294967295
-12.31 5.89 2.40 4294967295
-1.39 38.47 50.87 4294967295
-29.62 26.87 41.02 4294967295
33.24 21.30 46.42 4294967295
-23.73 31.94 44.16 4294967295
-19.98 -16.34 9.45 4294967295
-11.28 -24.50 10.46 4294967295
-34.88 -15.00 52.58 4294967295
-0.10 24.65 71.50 4294967295
32.94 -14.18 22.28 4294967295
32.69 -22.65 35.67 4294967295
31.60 18.28 23.66 4294967295
19.14 20.07 11.17 4294967295
-38.53 0.06 50.75 4294967295
-1.17 33.04 17.49 4294967295
-21.79 33.39 36.80 4294967295
-3.89 38.53 29.99 4294967295
36.70 15.78 38.06 4294967295
36.60 -1.13 23.89 4294967295
-39.69 2.36 44.38 4294967295
25.32 -19.21 15.72 4294967295
21.20 -16.30 69.74 4294967295
-23.24 27.24 57.82 4294967295
-24.60 -4.24 71.26 4294967295
27.20 25.75 54.04 4294967295
-8.27 -19.24 5.92 4294967295
-17.72 35.60 44.30 4294967295
21.19 33.11 32.60 4294967295
38.49 10.78 41.45 4294967295
-13.06 37.79 41.31 4294967295
-5.41 18.79 5.11 4294967295
-17.57 -27.03 63.68 4294967295
-33.19 21.32 33.34 4294967295
36.03 -16.78 35.52 4294967295
-39.48 4.06 35.00 4294967295
-36.08 8.47 55.04 4294967295
31.95 6.29 16.77 4294967295
9.20 34.11 58.76 4294967295
-5.61 30.59 65.16 4294967295
-1.88 24.27 8.26 4294967295
18.19 -22.94 12.75 4294967295
2.36 36.18 23.10 4294967295
35.76 -9.39 24.72 4294967295
-9.25 -37.00 27.95 4294967295
30.81 25.12 35.56 4294967295
-33.51 -4.05 18.54 4294967295
5.85 25.19 9.49 4294967295
12.63 -37.91 41.77 4294967295
-19.01 4.35 5.08 4294967295
31.94 -17.02 22.95 4294967295
23.83 -0.75 7.88 4294967295
1.26 17.27 76.06 4294967295
33.45 14.46 23.50 4294967295
38.60 3.20 50.00 4294967295
-32.37 17.92 55.19 4294967295
-19.43 -2.07 5.10 4294967295
-27.59 18.46 62.32 4294967295
3.22 -23.62 7.88 4294967295
33.57 17.14 26.62 4294967295
26.31 -6.76 69.36 4294967295
11.66 37.40 48.11 4294967295
23.17 -11.66 70.45 4294967295
-11.10 30.05 16.04 4294967295
25.05 31.16 38.76 4294967295
-15.61 33.96 25.75 4294967295
36.05 9.26 25.35 4294967295
23.01 29.88 53.34 4294967295
7.07 33.96 20.09 4294967295
31.96 -23.25 33.84 4294967295
10.12 -37.38 50.00 4294967295
-33.24 -9.40 19.84 4294967295
29.63 22.48 25.28 4294967295
-20.67 -34.05 43.67 4294967295
13.33 -28.98 15.87 4294967295
-25.44 -10.40 10.93 4294967295
-19.23 -1.33 75.05 4294967295
-2.88 -32.31 63.41 4294967295
31.90 22.32 30.84 4294967295
16.25 23.40 68.08 4294967295
22.12 -10.34 71.68 4294967295
19.82 21.11 12.40 4294967295
-23.14 4.61 7.70 4294967295
4.61 17.06 4.12 4294967295
3.15 -39.77 37.05 4294967295
-36.33 -16.64 41.77 4294967295
23.15 -22.68 63.44 4294967295
5.10 25.93 9.97 4294967295
31.19 -24.90 37.31 4294967295
-12.15 37.07 31.18 4294967295
-8.01 -28.80 66.58 4294967295
11.05 19.57 73.09 4294967295
25.22 27.39 25.37 4294967295
-30.89 9.81 16.56 4294967295
-30.17 -17.31 59.75 4294967295
-36.65 8.77 26.58 4294967295
-38.74 8.49 34.76 4294967295
6.14 12.03 77.65 4294967295
18.80 -10.34 6.24 4294967295
0.40 -29.60 66.91 4294967295
-38.94 -8.49 36.58 4294967295
-14.77 -16.19 6.54 4294967295
19.45 20.60 11.76 4294967295
39.17 -7.73 37.53 4294967295
-31.50 -23.98 34.28 4294967295
-8.11 16.43 75.56 4294967295
-24.61 2.69 71.42 4294967295
33.78 9.82 20.96 4294967295
16.69 -2.16 76.29 4294967295
-31.20 -2.81 15.12 4294967295
-1.00 17.39 3.99 4294967295
-21.62 -14.54 70.35 4294967295
-38.74 8.54 34.89 4294967295
-6.09 8.77 78.55 4294967295
15.86 -16.16 72.98 4294967295
-32.93 -21.65 46.83 4294967295
-30.08 20.32 56.81 4294967295
21.50 -30.65 25.91 4294967295
-32.21 7.96 17.65 4294967295
-21.20 -14.01 9.11 4294967295
-6.65 -35.75 56.67 4294967295
-35.80 -16.90 34.29 4294967295
38.77 -8.41 34.88 4294967295
10.16 -18.50 6.02 4294967295
14.64 -24.87 67.70 4294967295
-15.71 -36.73 41.97 4294967295
-15.52 -21.95 69.62 4294967295
-28.75 -4.27 67.48 4294967295
-31.31 -12.57 61.48 4294967295
-22.35 -16.83 11.41 4294967295
-30.65 -25.29 44.63 4294967295
-2.78 35.62 57.98 4294967295
-34.50 18.96 32.93 4294967295
-4.62 -39.43 44.86 4294967295
-27.78 -28.70 42.10 4294967295
-12.86 2.47 2.20 4294967295
-27.80 18.84 61.73 4294967295
27.03 11.39 12.80 4294967295
25.59 -22.54 60.90 4294967295
-7.48 -28.24 67.32 4294967295
3.06 -14.48 2.84 4294967295
-11.57 29.38 15.45 4294967295
-6.28 34.21 20.24 4294967295
-29.81 -14.87 17.86 4294967295
2.85 1.43 79.87 4294967295
11.43 11.27 76.64 4294967295
7.09 -9.38 78.23 4294967295
-3.73 -37.75 27.30 4294967295
-9.54 36.31 26.18 4294967295
25.11 -30.28 47.25 4294967295
-8.23 -22.55 72.00 4294967295
-30.76 -10.48 16.68 4294967295
-4.51 39.68 42.31 4294967295
16.36 -23.42 12.00 4294967295
-29.97 23.05 53.04 4294967295
-37.76 8.82 49.83 4294967295
-2.90 -19.69 5.30 4294967295
-26.86 -27.37 28.62 4294967295
28.36 -25.37 52.33 4294967295
-33.63 20.67 46.48 4294967295
10.32 37.91 47.50 4294967295
0.19 29.91 13.44 4294967295
20.91 30.01 56.20 4294967295
4.92 -39.51 36.17 4294967295
3.90 -30.59 65.47 4294967295
-29.71 -22.31 54.83 4294967295
-20.40 -3.87 5.81 4294967295
20.63 24.97 63.47 4294967295
-25.76 22.94 60.25 4294967295
-36.04 12.56 51.97 4294967295
16.34 35.19 49.72 4294967295
5.11 25.10 70.72 4294967295
-22.29 15.76 10.76 4294967295
13.67 -29.50 63.30 4294967295
-11.51 -28.55 14.46 4294967295
25.03 30.47 46.73 4294967295
12.02 -3.10 1.97 4294967295
-33.95 -17.36 52.07 4294967295
-11.20 -26.73 67.56 4294967295
31.73 8.94 17.35 4294967295
-38.74 2.14 30.27 4294967295
-38.57 -1.55 50.48 4294967295
0.55 -10.82 78.51 4294967295
15.95 35.43 49.52 4294967295
21.49 -33.69 38.29 4294967295
-15.44 -2.96 3.22 4294967295
-23.15 -9.01 8.65 4294967295
-9.67 21.57 72.27 4294967295
-23.62 15.65 11.77 4294967295
-3.12 -7.76 79.12 4294967295
-32.66 -6.99 62.01 4294967295
12.95 -22.64 70.33 4294967295
-34.85 -17.86 48.16 4294967295
14.08 25.79 12.86 4294967295
-2.87 31.93 63.92 4294967295
2.57 31.64 64.34 4294967295
-33.53 -21.32 35.41 4294967295
-25.94 -9.39 68.96 4294967295
-12.63 -27.76 65.89 4294967295
38.21 11.81 39.47 4294967295
-35.02 -14.35 27.05 4294967295
38.91 2.86 48.81 4294967295
25.55 -23.74 20.41 4294967295
35.66 18.11 40.25 4294967295
-4.07 -39.35 45.93 4294967295
-0.77 39.85 36.63 4294967295
2.87 19.36 5.11 4294967295
-15.19 -31.03 60.16 4294967295
-35.39 15.08 29.05 4294967295
-9.16 -28.36 66.68 4294967295
3.83 8.50 1.10 4294967295
11.82 15.62 5.12 4294967295
-33.77 6.71 19.63 4294967295
-18.68 -19.21 10.30 4294967295
1.55 3.87 79.78 4294967295
4.94 -28.99 12.89 4294967295
-0.68 -29.00 12.45 4294967295
-0.20 29.46 67.06 4294967295
-8.89 15.92 4.40 4294967295
-1.78 -21.90 73.43 4294967295
-31.86 -12.95 19.57 4294967295
34.92 -17.84 32.12 4294967295
38.10 -8.21 31.01 4294967295
11.95 -20.86 71.97 4294967295
-17.26 -26.28 15.27 4294967295
1.82 6.15 79.48 4294967295
-31.09 25.14 38.93 4294967295
-15.47 18.89 8.32 4294967295
11.99 -31.77 61.13 4294967295
-12.79 29.57 63.70 4294967295
-38.10 0.66 27.84 4294967295
-30.66 25.66 41.08 4294967295
36.38 -8.92 54.05 4294967295
-28.79 16.61 17.75 4294967295
-4.39 -38.63 49.40 4294967295
31.26 -23.56 31.78 4294967295
-24.18 -23.12 18.07 4294967295
-28.41 -28.15 40.49 4294967295
6.29 -4.61 0.77 4294967295
-14.27 33.17 57.20 4294967295
29.46 25.58 31.16 4294967295
-5.95 -8.90 1.46 4294967295
-39.49 1.02 33.74 4294967295
-27.80 -23.79 56.15 4294967295
0.13 -38.37 28.69 4294967295
-23.54 -32.02 44.58 4294967295
-27.82 -4.13 68.44 4294967295
29.51 -24.24 51.90 4294967295
25.32 25.66 22.67 4294967295
12.38 -36.99 31.12 4294967295
-1.75 -39.75 44.14 4294967295
-3.24 39.38 33.76 4294967295
35.60 -10.46 54.94 4294967295
-34.76 15.04 27.14 4294967295
-2.34 31.43 15.37 4294967295
14.70 30.31 18.43 4294967295
8.19 23.89 71.02 4294967295
-12.61 -35.17 54.29 4294967295
-11.45 21.14 8.03 4294967295
-21.68 12.97 71.01 4294967295
-12.85 27.49 66.06 4294967295
21.51 31.74 51.39 4294967295
-9.16 15.50 75.72 4294967295
-27.78 26.70 50.73 4294967295
-36.70 15.66 42.85 4294967295
9.90 -22.63 71.46 4294967295
32.10 -0.36 16.14 4294967295
-7.94 16.82 75.41 4294967295
21.80 -33.12 34.69 4294967295
-37.23 14.55 38.55 4294967295
-6.41 -38.73 32.31 4294967295
-28.38 27.83 44.48 4294967295
23.49 -13.56 10.60 4294967295
-2.02 -39.94 40.95 4294967295
-28.60 22.59 23.52 4294967295
-38.10 2.13 28.00 4294967295
-31.28 -23.40 48.58 4294967295
-19.55 11.56 72.93 4294967295
-25.64 -20.16 16.85 4294967295
-35.61 -8.02 23.64 4294967295
11.35 -26.47 67.76 4294967295
1.65 -21.27 73.84 4294967295
34.79 -19.75 40.18 4294967295
11.95 23.27 70.26 4294967295
33.85 13.23 23.30 4294967295
-23.54 14.11 10.91 4294967295
-39.82 -1.72 43.32 4294967295
16.87 34.66 29.34 4294967295
8.13 -21.47 72.76 4294967295
-2.97 -31.86 64.01 4294967295
-23.12 -20.15 65.68 4294967295
34.96 19.31 42.13 4294967295
-31.70 -21.56 28.59 4294967295
16.11 -32.53 56.81 4294967295
-18.28 -35.22 45.02 4294967295
25.41 -2.56 9.21 4294967295
14.62 -30.11 61.89 4294967295
-21.31 -6.94 73.13 4294967295
-23.06 -2.07 72.62 4294967295
16.14 28.32 63.19 4294967295
-27.94 26.96 49.61 4294967295
-31.15 -16.35 20.97 4294967295
-14.38 -31.84 59.48 4294967295
-6.56 18.30 5.04 4294967295
-37.82 -8.05 29.75 4294967295
-31.25 -19.56 24.48 4294967295
4.91 19.41 5.37 4294967295
15.50 1.20 3.15 4294967295
17.40 -19.85 70.06 4294967295
30.89 -23.17 29.56 4294967295
-25.10 -8.86 10.14 4294967295
39.13 -8.30 39.52 4294967295
22.24 27.58 58.56 4294967295
-31.12 20.98 26.16 4294967295
-17.07 34.12 27.99 4294967295
-9.29 -36.52 26.58 4294967295
25.85 -29.09 30.73 4294967295
-9.46 -37.73 49.33 4294967295
-10.37 -32.49 19.10 4294967295
6.98 -27.56 11.86 4294967295
-10.72 -15.79 4.85 4294967295
-1.71 8.83 1.02 4294967295
-38.34 -6.73 30.81 4294967295
-32.86 -22.81 39.58 4294967295
-7.39 -35.98 55.83 4294967295
-13.53 18.79 72.61 4294967295
-6.07 38.97 46.65 4294967295
8.08 38.30 31.74 4294967295
-6.39 38.17 50.12 4294967295
7.69 36.47 25.49 4294967295
5.41 -39.28 45.31 4294967295
9.25 -37.98 31.52 4294967295
-35.65 2.94 57.90 4294967295
-15.81 -21.06 9.89 4294967295
35.51 7.57 56.79 4294967295
12.54 37.29 47.25 4294967295
10.26 -30.77 16.59 4294967295
8.41 -26.46 11.21 4294967295
-14.93 -20.44 9.02 4294967295
-23.53 30.10 51.84 4294967295
25.58 -8.42 69.58 4294967295
-0.03 -22.95 7.24 4294967295
-21.07 -28.42 21.33 4294967295
-3.18 34.07 60.72 4294967295
-22.13 -32.57 32.96 4294967295
-12.22 33.42 21.73 4294967295
15.87 27.15 64.72 4294967295
38.72 4.00 30.78 4294967295
10.84 -31.32 17.60 4294967295
0.81 -14.99 2.93 4294967295
11.96 22.94 9.49 4294967295
-38.84 6.85 33.30 4294967295
11.29 34.38 22.95 4294967295
4.23 -39.62 43.46 4294967295
11.54 27.55 66.61 4294967295
27.06 4.10 10.83 4294967295
-20.60 -33.02 49.23 4294967295
1.71 -25.30 70.94 4294967295
28.41 28.13 38.86 4294967295
2.10 -12.36 2.02 4294967295
-32.24 -23.65 41.10 4294967295
28.32 -24.18 25.40 4294967295
-3.89 -19.59 74.66 4294967295
25.48 -21.72 18.11 4294967295
-0.57 -23.49 7.63 4294967295
25.73 -5.64 70.10 4294967295
20.54 27.53 19.51 4294967295
-36.22 -6.20 24.19 4294967295
-7.40 34.08 20.41 4294967295
-17.10 8.68 75.10 4294967295
25.54 -24.89 21.89 4294967295
8.80 -15.84 75.66 4294967295
-24.82 -24.24 59.91 4294967295
-38.68 -7.20 32.77 4294967295
16.54 6.61 4.18 4294967295
19.20 -34.45 33.32 4294967295
-18.23 -28.86 60.85 4294967295
8.37 -34.54 58.36 4294967295
-25.88 19.35 63.58 4294967295
27.78 -22.45 21.99 4294967295
22.14 -12.03 8.94 4294967295
-11.16 37.44 31.42 4294967295
-35.59 15.77 30.81 4294967295
-32.72 18.02 54.31 4294967295
36.47 4.18 55.90 4294967295
-11.35 -18.99 6.68 4294967295
22.19 -30.85 27.51 4294967295
-0.97 -23.46 72.38 4294967295
-37.95 12.22 36.77 4294967295
35.48 -16.89 47.45 4294967295
9.67 -18.30 5.77 4294967295
-37.54 -13.60 37.62 4294967295
-28.54 17.12 62.20 4294967295
-17.68 -35.27 33.38 4294967295
-3.81 -35.39 58.24 4294967295
17.76 -35.48 34.93 4294967295
-11.69 -21.89 71.37 4294967295
-10.89 27.72 66.70 4294967295
-36.20 17.00 39.09 4294967295
39.42 -6.18 42.82 4294967295
-26.77 -28.65 47.90 4294967295
-39.37 0.37 32.94 4294967295
-6.40 -35.23 57.83 4294967295
-3.37 -27.38 68.96 4294967295
20.25 -16.40 70.35 4294967295
23.10 -8.68 8.52 4294967295
-1.00 -27.19 10.68 4294967295
37.61 -10.02 30.79 4294967295
-6.38 37.08 26.43 4294967295
18.50 28.84 60.64 4294967295
12.56 -11.74 76.12 4294967295
-39.67 -3.38 36.11 4294967295
28.46 -19.77 59.98 4294967295
-14.84 -29.50 62.58 4294967295
-1.69 -39.27 32.61 4294967295
-21.37 -27.66 59.45 4294967295
16.69 25.23 66.18 4294967295
-32.80 -22.90 40.14 4294967295
25.64 24.70 21.76 4294967295
25.69 -23.38 20.16 4294967295
14.64 34.81 26.80 4294967295
17.37 29.76 60.31 4294967295
25.39 -18.04 14.91 4294967295
-29.83 -20.68 23.19 4294967295
12.40 -23.81 10.35 4294967295
35.54 -15.68 49.53 4294967295
17.94 35.67 42.34 4294967295
29.90 24.25 29.14 4294967295
23.83 -10.34 9.58 4294967295
-10.12 16.73 5.11 4294967295
-14.45 35.82 29.59 4294967295
29.05 26.48 47.41 4294967295
20.44 33.63 47.17 4294967295
-8.99 -30.82 63.86 4294967295
37.14 13.50 33.82 4294967295
-5.19 -26.69 10.67 4294967295
11.59 -36.55 51.39 4294967295
-17.89 -15.40 7.71 4294967295
-6.59 39.29 43.59 4294967295
39.53 -5.74 37.87 4294967295
-24.76 -30.44 32.23 4294967295
-37.82 2.79 52.72 4294967295
16.49 -28.85 62.27 4294967295
8.37 -30.35 64.67 4294967295
-30.85 20.16 55.55 4294967295
3.75 34.89 59.19 4294967295
-37.31 12.76 46.70 4294967295
-8.55 -18.28 5.46 4294967295
15.89 -23.66 11.93 4294967295
24.46 11.54 69.47 4294967295
11.29 10.50 3.09 4294967295
29.61 -8.24 14.40 4294967295
18.46 -12.43 6.76 4294967295
-6.71 39.43 39.26 4294967295
4.86 -38.78 31.50 4294967295
32.79 16.99 55.37 4294967295
-11.84 29.81 63.89 4294967295
-22.59 29.11 24.44 4294967295
-6.02 39.54 39.21 4294967295
-6.26 39.44 37.72 4294967295
-28.53 9.38 13.58 4294967295
-24.61 -21.14 63.40 4294967295
28.86 14.49 16.40 4294967295
-11.67 -37.90 45.26 4294967295
15.74 -23.36 11.60 4294967295
0.86 -37.60 53.61 4294967295
21.64 -30.75 53.63 4294967295
-33.06 -12.26 58.89 4294967295
-10.10 18.58 73.95 4294967295
39.99 0.41 40.97 4294967295
34.53 -7.48 58.74 4294967295
34.07 -19.58 32.51 4294967295
-8.98 -30.42 64.37 4294967295
31.96 21.95 49.82 4294967295
6.37 8.79 1.50 4294967295
-27.75 -8.15 67.63 4294967295
-2.12 -11.49 78.26 4294967295
37.71 11.10 47.38 4294967295
14.48 35.19 27.66 4294967295
-6.58 13.61 77.04 4294967295
-12.84 -37.71 36.39 4294967295
32.94 20.05 50.62 4294967295
10.78 -22.38 8.65 4294967295
-23.54 15.16 11.44 4294967295
17.83 31.53 56.98 4294967295
32.23 1.26 16.35 4294967295
16.58 -30.92 20.79 4294967295
-13.60 37.56 37.85 4294967295
9.75 38.55 44.31 4294967295
10.22 -9.10 2.41 4294967295
20.54 -24.23 64.32 4294967295
-33.42 -10.27 59.43 4294967295
22.05 24.03 16.84 4294967295
16.17 9.07 75.45 4294967295
-21.49 -26.73 19.41 4294967295
-38.23 4.86 50.72 4294967295
-36.26 16.32 35.61 4294967295
-8.65 21.49 7.39 4294967295
-9.19 20.70 72.97 4294967295
-23.93 -0.25 72.05 4294967295
30.09 22.05 54.45 4294967295
-35.86 10.98 26.08 4294967295
-19.95 -30.83 24.13 4294967295
-25.49 -16.23 66.21 4294967295
-14.27 -37.13 35.84 4294967295
35.77 -14.63 50.33 4294967295
-28.44 -14.79 16.07 4294967295
-36.61 14.73 33.45 4294967295
-36.61 -5.08 55.30 4294967295
7.25 16.59 4.33 4294967295
25.35 -19.48 64.05 4294967295
17.44 -34.26 28.96 4294967295
-21.67 -29.38 23.65 4294967295
-24.69 -13.39 11.52 4294967295
-15.81 -36.71 41.59 4294967295
-39.71 -4.51 41.61 4294967295
10.96 24.02 9.95 4294967295
30.41 23.64 29.19 4294967295
-3.71 -36.75 55.34 4294967295
37.57 -12.65 45.37 4294967295
16.08 35.91 32.78 4294967295
38.81 0.08 49.69 4294967295
0.51 -31.50 15.35 4294967295
-20.88 -32.47 29.52 4294967295
39.63 -4.72 37.28 4294967295
26.89 1.61 69.57 4294967295
30.62 -22.46 27.44 4294967295
-27.05 26.74 27.63 4294967295
-29.90 20.47 23.05 4294967295
25.77 14.50 66.94 4294967295
17.44 -16.17 72.16 4294967295
9.13 -17.79 99.97 4294967295
-17.87 8.64 97.56 4294967295
-13.54 14.07 104.33 4294967295
-5.59 -14.56 112.53 4294967295
-6.60 -4.05 81.56 4294967295
-11.12 10.68 112.74 4294967295
-3.16 -18.12 107.85 4294967295
-8.06 4.81 82.34 4294967295
19.85 2.42 100.40 4294967295
15.73 9.79 92.46 4294967295
-7.03 -18.54 97.39 4294967295
3.53 15.00 87.25 4294967295
-5.78 6.93 117.85 4294967295
-10.15 -11.42 112.91 4294967295
4.11 2.86 119.36 4294967295
0.22 7.56 81.49 4294967295
-7.78 14.16 111.78 4294967295
-9.62 -1.08 117.50 4294967295
-13.30 2.26 114.77 4294967295
-14.47 -6.42 112.22 4294967295
3.86 -19.46 97.44 4294967295
13.87 2.36 85.78 4294967295
2.87 8.23 82.00 4294967295
-12.35 13.63 92.15 4294967295
-12.17 14.87 105.54 4294967295
8.63 7.21 83.46 4294967295
-6.29 -18.19 105.44 4294967295
-3.87 1.30 80.42 4294967295
13.20 -3.55 85.40 4294967295
-4.76 19.38 101.38 4294967295
6.21 -16.25 90.13 4294967295
-5.25 18.94 96.27 4294967295
-10.85 8.29 114.61 4294967295
19.72 -2.74 98.07 4294967295
0.58 19.09 94.08 4294967295
-16.99 4.80 90.60 4294967295
8.87 13.86 88.64 4294967295
-17.16 -10.27 99.92 4294967295
-18.29 1.99 92.16 4294967295
12.43 -2.85 115.41 4294967295
7.25 17.66 105.96 4294967295
6.30 -18.11 94.31 4294967295
3.21 -0.69 119.73 4294967295
7.83 17.47 105.78 4294967295
-14.20 5.33 86.96 4294967295
-13.28 14.85 98.23 4294967295
-2.04 -9.66 117.39 4294967295
-19.36 5.01 100.41 4294967295
15.26 -12.70 102.44 4294967295
19.35 3.52 103.62 4294967295
-2.53 16.51 111.00 4294967295
3.41 18.38 92.89 4294967295
17.03 4.95 90.76 4294967295
-5.23 6.83 81.94 4294967295
1.11 -10.83 116.78 4294967295
-2.44 11.43 83.77 4294967295
19.40 -0.06 104.88 4294967295
-15.98 2.34 111.80 4294967295
-17.61 -8.08 104.97 4294967295
-0.26 -10.99 83.29 4294967295
-16.54 6.58 109.11 4294967295
-19.06 5.91 101.28 4294967295
-3.68 19.47 102.71 4294967295
18.64 7.24 100.08 4294967295
-5.58 -1.96 119.11 4294967295
-7.48 -15.82 109.68 4294967295
1.68 -19.03 94.08 4294967295
10.73 15.36 107.00 4294967295
8.99 16.11 92.27 4294967295
14.35 -12.91 94.76 4294967295
12.40 4.10 84.86 4294967295
6.42 -14.99 111.58 4294967295
5.39 4.41 81.25 4294967295
11.72 14.71 93.20 4294967295
10.66 8.09 85.14 4294967295
-0.63 3.98 80.41 4294967295
9.28 -11.70 86.69 4294967295
-0.07 2.20 80.12 4294967295
-8.33 -10.62 114.76 4294967295
-3.82 0.25 80.37 4294967295
-12.90 -13.51 92.85 4294967295
0.68 6.35 118.95 4294967295
18.88 6.19 97.70 4294967295
15.58 -12.49 98.88 4294967295
-12.11 4.28 84.67 4294967295
-19.61 -2.71 102.84 4294967295
6.09 -12.15 114.67 4294967295
-10.13 -17.08 97.59 4294967295
-14.13 -13.91 102.58 4294967295
-8.80 4.53 82.62 4294967295
6.85 -16.99 91.98 4294967295
-0.71 -0.92 119.97 4294967295
-1.50 -19.68 96.74 4294967295
8.25 8.22 116.26 4294967295
15.08 -12.20 95.13 4294967295
-14.19 -10.02 109.91 4294967295
-1.47 15.82 87.86 4294967295
16.32 8.04 91.69 4294967295
-3.03 19.28 95.65 4294967295
-9.41 13.14 88.22 4294967295
3.08 -0.71 80.25 4294967295
-8.07 -6.49 117.11 4294967295
16.35 5.60 89.94 4294967295
2.92 -17.71 108.83 4294967295
19.35 -0.11 105.05 4294967295
-11.84 15.03 105.82 4294967295
-7.50 -17.16 107.02 4294967295
-13.42 -14.77 98.63 4294967295
9.59 15.74 92.24 4294967295
-17.20 4.31 90.74 4294967295
-11.17 1.87 116.48 4294967295
-8.44 -0.12 81.87 4294967295
-1.25 18.91 93.62 4294967295
-11.97 -8.01 113.87 4294967295
5.16 -19.28 98.72 4294967295
12.47 -12.54 109.34 4294967295
3.41 5.21 80.99 4294967295
5.20 19.20 102.07 4294967295
-10.39 16.71 103.59 4294967295
-1.28 18.55 92.64 4294967295
13.27 7.86 87.26 4294967295
-16.00 -12.01 100.02 4294967295
11.09 -16.64 100.06 4294967295
-0.48 -16.40 88.56 4294967295
-17.84 -6.05 106.73 4294967295
16.45 8.34 107.74 4294967295
-4.74 14.01 86.54 4294967295
15.05 2.10 86.99 4294967295
5.79 18.70 95.89 4294967295
-6.84 18.56 97.07 4294967295
-3.70 -10.07 83.12 4294967295
10.90 3.81 116.33 4294967295
-14.46 -12.53 94.16 4294967295
12.58 -11.66 110.29 4294967295
-3.17 15.47 112.28 4294967295
-5.44 18.37 105.75 4294967295
-5.21 13.37 113.93 4294967295
-19.08 -1.46 94.17 4294967295
19.83 -0.47 102.56 4294967295
-4.00 -12.32 84.76 4294967295
2.39 11.94 115.87 4294967295
-15.04 -6.34 88.44 4294967295
-14.63 -13.63 99.77 4294967295
-6.70 4.58 81.72 4294967295
-0.79 18.89 106.53 4294967295
1.79 19.19 94.64 4294967295
-13.88 13.59 104.75 4294967295
-16.67 10.30 96.01 4294967295
5.98 18.01 106.31 4294967295
7.15 -14.78 88.58 4294967295
14.13 13.85 97.10 4294967295
-3.42 0.04 80.30 4294967295
-14.10 -12.00 107.56 4294967295
-0.05 -19.71 96.61 4294967295
10.31 3.96 83.32 4294967295
-12.35 7.41 113.88 4294967295
12.62 -0.59 115.51 4294967295
6.96 12.15 85.72 4294967295
-6.15 -15.70 110.76 4294967295
-6.75 17.92 94.22 4294967295
-15.78 -4.24 88.47 4294967295
0.57 -16.14 88.20 4294967295
4.68 -19.44 100.19 4294967295
-1.92 -19.27 105.00 4294967295
6.23 15.23 111.38 4294967295
-8.41 -18.13 100.60 4294967295
10.65 14.64 108.50 4294967295
-7.33 -17.53 106.26 4294967295
11.65 -7.20 114.58 4294967295
-6.69 -12.68 113.95 4294967295
-8.70 5.17 117.25 4294967295
-17.63 -5.01 91.99 4294967295
6.18 -8.87 116.83 4294967295
-10.18 4.02 83.26 4294967295
-15.99 0.99 111.97 4294967295
-1.91 -2.12 80.20 4294967295
-4.07 12.84 114.79 4294967295
-2.34 -19.55 103.51 4294967295
5.63 18.90 96.68 4294967295
19.73 -2.83 101.65 4294967295
-16.11 8.42 91.66 4294967295
8.09 13.40 87.55 4294967295
-10.38 16.75 96.60 4294967295
18.07 -8.36 98.14 4294967295
5.30 -19.06 97.08 4294967295
1.82 -3.50 119.61 4294967295
-11.09 15.16 93.14 4294967295
-10.53 -16.69 96.73 4294967295
-17.99 1.20 91.34 4294967295
-2.06 -19.55 103.67 4294967295
-8.82 -1.69 82.13 4294967295
-1.44 14.36 86.16 4294967295
16.18 -8.99 92.44 4294967295
-9.74 -17.25 102.73 4294967295
15.57 -12.52 100.89 4294967295
2.05 8.85 117.82 4294967295
14.16 -1.88 114.00 4294967295
-13.47 -13.91 105.00 4294967295
5.91 19.11 100.01 4294967295
12.51 5.72 114.52 4294967295
9.17 17.30 104.05 4294967295
-4.71 -13.86 113.63 4294967295
15.73 -3.35 111.89 4294967295
2.27 11.67 116.08 4294967295
-0.03 0.09 80.00 4294967295
14.39 11.02 91.55 4294967295
8.61 10.42 85.26 4294967295
3.20 3.04 80.49 4294967295
1.94 -18.11 91.73 4294967295
17.96 -4.55 107.54 4294967295
-9.42 2.40 117.48 4294967295
4.71 -11.39 84.25 4294967295
-4.46 -19.18 96.53 4294967295
5.23 15.91 89.07 4294967295
10.76 -3.27 83.46 4294967295
-5.31 18.51 105.39 4294967295
11.65 -14.17 92.03 4294967295
5.31 -17.06 108.98 4294967295
6.76 13.89 112.71 4294967295
-9.15 17.43 103.55 4294967295
-3.35 -19.62 101.99 4294967295
3.81 -19.46 97.40 4294967295
