VERSION 0.7
FIELDS x y z rgba
SIZE 4 4 4 4
TYPE F F F U
COUNT 1 1 1 1
WIDTH 1608
HEIGHT 1
VIEWPOINT 0 0 0 1 0 0 0
POINTS 1608
DATA ascii
32.36 18.47 14.55 4294967295
-36.88 -11.14 10.77 4294967295
-12.22 31.79 20.98 4294967295
-2.87 27.70 -28.71 4294967295
8.48 36.13 14.92 4294967295
5.24 -14.85 -36.77 4294967295
-38.67 -10.13 -1.31 4294967295
36.68 15.84 1.99 4294967295
-19.64 7.03 34.13 4294967295
30.12 22.52 -13.63 4294967295
-32.54 22.15 -7.13 4294967295
-1.57 30.23 26.15 4294967295
-13.53 37.64 -0.71 4294967295
12.87 36.20 -11.13 4294967295
-7.35 -27.16 -28.43 4294967295
-34.98 -17.67 7.99 4294967295
-16.05 -36.64 -0.44 4294967295
-17.05 -32.20 -16.51 4294967295
-29.02 -25.43 10.56 4294967295
29.22 -16.55 21.73 4294967295
-16.17 34.99 -10.70 4294967295
-26.41 -29.43 -6.02 4294967295
28.38 24.72 -13.54 4294967295
12.74 -5.74 37.48 4294967295
-17.90 -15.16 32.40 4294967295
3.13 -38.60 10.02 4294967295
-7.70 -20.16 33.68 4294967295
-39.09 -5.01 6.84 4294967295
-24.23 14.58 28.28 4294967295
-36.19 -17.03 -0.10 4294967295
-6.56 -32.61 -22.22 4294967295
38.01 2.16 12.28 4294967295
21.52 -23.31 -24.37 4294967295
10.72 -10.42 37.10 4294967295
-5.96 13.06 -37.34 4294967295
-37.20 0.33 -14.70 4294967295
28.78 23.51 14.79 4294967295
31.21 24.99 -1.09 4294967295
-18.56 32.97 12.98 4294967295
20.09 -28.18 20.06 4294967295
2.07 -2.34 39.88 4294967295
-36.06 -6.76 15.94 4294967295
36.67 15.97 0.34 4294967295
38.98 8.51 -2.90 4294967295
-18.44 23.71 26.41 4294967295
3.23 -1.89 39.82 4294967295
26.32 -26.67 -14.00 4294967295
-7.77 39.23 0.88 4294967295
0.51 -39.17 8.09 4294967295
10.97 -12.91 36.24 4294967295
18.90 27.37 22.22 4294967295
24.07 -29.26 12.81 4294967295
14.38 28.09 -24.58 4294967295
-23.83 -29.21 -13.37 4294967295
17.10 -30.68 19.14 4294967295
-15.60 -4.48 36.56 4294967295
-29.99 8.95 -24.91 4294967295
29.34 0.77 -27.17 4294967295
-18.93 22.06 -27.48 4294967295
28.48 -27.88 -3.39 4294967295
-9.82 26.13 28.65 4294967295
3.32 -28.85 -27.51 4294967295
-35.94 13.02 11.80 4294967295
26.68 -7.77 -28.78 4294967295
16.30 -29.63 21.37 4294967295
0.83 39.84 3.50 4294967295
-37.80 -9.39 9.09 4294967295
-20.48 -34.32 -1.70 4294967295
33.19 -3.15 -22.10 4294967295
33.23 11.82 -18.86 4294967295
29.68 21.12 -16.52 4294967295
6.09 13.48 -37.16 4294967295
-30.11 10.15 -24.30 4294967295
5.61 -6.46 39.07 4294967295
5.09 -37.77 12.14 4294967295
-24.81 -8.65 30.16 4294967295
32.95 -20.71 9.22 4294967295
17.44 35.96 1.60 4294967295
-14.37 -36.60 7.37 4294967295
36.11 -17.13 1.63 4294967295
-22.41 -32.67 -5.51 4294967295
17.75 30.04 19.56 4294967295
-28.40 -10.74 -26.04 4294967295
-29.00 -27.20 4.38 4294967295
-4.82 15.09 -36.73 4294967295
5.48 -21.31 -33.41 4294967295
-27.67 -1.39 -28.85 4294967295
23.69 11.18 30.23 4294967295
-26.50 -12.71 -27.14 4294967295
-37.96 0.03 12.62 4294967295
-12.09 -6.23 -37.62 4294967295
-26.21 6.08 -29.60 4294967295
13.17 -37.23 -6.33 4294967295
-4.32 -21.32 -33.57 4294967295
-11.01 37.95 6.23 4294967295
-25.36 30.93 -0.30 4294967295
24.21 -27.40 -16.22 4294967295
34.31 -16.35 -12.48 4294967295
14.76 -3.55 37.01 4294967295
0.80 -34.99 19.37 4294967295
-38.75 -9.12 3.93 4294967295
13.61 -36.00 -10.91 4294967295
18.60 35.34 -2.37 4294967295
-5.75 20.86 33.64 4294967295
-35.91 16.91 4.94 4294967295
-1.15 39.81 3.71 4294967295
12.78 -1.85 37.86 4294967295
-4.99 19.32 34.67 4294967295
38.35 10.60 -4.08 4294967295
-31.10 -3.06 -24.96 4294967295
13.01 36.99 -7.91 4294967295
-14.77 -14.91 -34.05 4294967295
30.12 -21.56 -15.10 4294967295
-9.14 19.72 -33.58 4294967295
-26.73 -8.86 -28.41 4294967295
-28.52 14.29 -24.13 4294967295
-26.82 -6.11 -29.04 4294967295
-32.50 6.61 -22.36 4294967295
-35.67 -0.96 18.08 4294967295
-35.16 9.61 -16.48 4294967295
10.50 36.72 11.88 4294967295
38.09 -12.06 1.93 4294967295
21.15 12.11 -31.72 4294967295
17.95 -12.24 33.59 4294967295
-32.45 6.68 -22.42 4294967295
3.11 -34.02 -20.81 4294967295
-16.75 -17.50 -31.83 4294967295
18.08 15.42 32.18 4294967295
-39.49 -3.84 5.10 4294967295
20.43 -30.42 -16.04 4294967295
-3.28 -24.61 31.36 4294967295
39.85 -1.63 3.07 4294967295
33.49 18.79 11.20 4294967295
0.88 3.94 39.80 4294967295
-34.27 19.69 -6.14 4294967295
-30.14 -25.94 -4.30 4294967295
11.48 -6.19 -37.82 4294967295
19.37 -33.80 -9.06 4294967295
16.99 -24.04 -27.08 4294967295
1.69 26.78 29.66 4294967295
11.91 -16.74 -34.32 4294967295
-37.66 10.99 7.79 4294967295
-20.21 34.38 -3.07 4294967295
-17.89 28.53 -21.59 4294967295
-15.14 19.87 -31.24 4294967295
13.15 1.97 37.72 4294967295
-21.45 29.85 15.77 4294967295
-20.04 3.16 -34.47 4294967295
9.88 -22.21 -31.77 4294967295
-10.95 0.61 -38.47 4294967295
-12.51 -17.07 -33.94 4294967295
29.38 -21.03 17.16 4294967295
-11.26 -30.82 -22.88 4294967295
8.83 35.92 15.23 4294967295
3.35 -39.86 -0.19 4294967295
12.28 9.04 -36.98 4294967295
-7.46 -12.04 -37.41 4294967295
-28.48 -11.56 -25.59 4294967295
-5.08 39.68 -0.10 4294967295
-13.15 27.23 -26.19 4294967295
9.09 -4.98 -38.63 4294967295
20.18 27.50 20.89 4294967295
24.96 30.58 6.44 4294967295
14.90 -34.44 13.86 4294967295
27.02 28.84 -6.20 4294967295
25.17 17.55 25.66 4294967295
-16.15 -4.59 36.31 4294967295
39.93 -0.82 2.30 4294967295
-18.67 17.42 -30.79 4294967295
16.36 26.80 24.78 4294967295
1.87 31.22 -24.94 4294967295
32.02 18.62 -15.11 4294967295
-23.15 -32.40 3.78 4294967295
31.26 6.64 -24.06 4294967295
-18.45 -33.81 -10.79 4294967295
36.27 16.00 5.37 4294967295
8.85 -3.09 -38.89 4294967295
10.65 -28.41 26.07 4294967295
12.78 -14.89 34.86 4294967295
-8.47 -1.36 -39.07 4294967295
-0.83 -23.21 32.57 4294967295
-16.67 15.36 -32.96 4294967295
27.42 3.28 -28.93 4294967295
-6.51 35.75 -16.71 4294967295
20.47 12.84 -31.88 4294967295
-1.43 -39.93 1.78 4294967295
-22.07 -4.69 -33.03 4294967295
-17.94 -33.35 12.90 4294967295
13.01 35.02 14.30 4294967295
-26.11 16.72 -25.27 4294967295
-23.75 12.26 29.76 4294967295
-7.80 39.08 3.42 4294967295
-5.62 13.59 37.20 4294967295
-14.62 -27.76 24.81 4294967295
1.36 34.06 20.93 4294967295
-21.45 17.30 28.99 4294967295
9.71 11.06 37.19 4294967295
35.16 -17.76 6.95 4294967295
13.18 36.57 -9.41 4294967295
-2.89 -1.15 -39.88 4294967295
15.09 -30.32 21.28 4294967295
-17.95 32.57 -14.73 4294967295
-5.63 39.05 6.61 4294967295
32.44 -8.51 21.80 4294967295
-18.95 -18.14 -30.19 4294967295
22.29 1.26 33.19 4294967295
13.23 14.69 -34.77 4294967295
-6.68 38.75 -7.36 4294967295
25.03 -10.12 29.51 4294967295
-9.38 24.25 -30.39 4294967295
38.93 2.20 -8.92 4294967295
16.53 33.95 -13.21 4294967295
-17.65 3.71 -35.70 4294967295
22.06 1.49 33.33 4294967295
17.22 -9.78 -34.76 4294967295
26.47 -29.25 6.62 4294967295
-1.25 25.35 -30.91 4294967295
-14.90 -4.37 36.86 4294967295
-19.15 34.63 5.87 4294967295
-13.14 15.51 34.45 4294967295
18.64 22.50 -27.32 4294967295
38.96 8.71 2.52 4294967295
37.36 -7.73 -12.03 4294967295
22.16 -3.83 -33.08 4294967295
-39.55 -4.81 -3.58 4294967295
29.30 -20.63 -17.77 4294967295
-35.39 9.19 16.23 4294967295
-9.87 -16.23 35.20 4294967295
-25.61 21.93 21.51 4294967295
-6.63 -3.98 -39.24 4294967295
9.43 -30.41 -24.21 4294967295
25.17 -31.07 0.92 4294967295
11.32 -38.27 -2.72 4294967295
10.30 35.66 -14.91 4294967295
4.42 2.46 -39.68 4294967295
27.16 -5.05 28.93 4294967295
34.56 19.55 4.82 4294967295
-40.00 -0.39 0.48 4294967295
-2.69 18.03 35.60 4294967295
38.68 10.13 1.12 4294967295
25.67 -23.18 20.09 4294967295
13.32 2.51 -37.63 4294967295
-39.29 -0.78 7.48 4294967295
14.78 7.75 -36.35 4294967295
18.79 23.55 26.32 4294967295
32.04 22.06 9.32 4294967295
9.39 7.39 -38.17 4294967295
-36.47 -6.24 15.19 4294967295
-30.55 -17.49 -18.99 4294967295
-28.88 -24.52 -12.82 4294967295
16.34 -26.38 25.25 4294967295
-37.32 -10.01 10.34 4294967295
-30.01 25.34 7.58 4294967295
13.25 6.22 -37.22 4294967295
-9.93 30.16 -24.32 4294967295
7.43 38.31 -8.80 4294967295
-18.99 -13.36 -32.57 4294967295
-19.56 33.12 10.98 4294967295
15.30 -20.08 31.02 4294967295
-34.77 7.34 -18.36 4294967295
-0.97 -3.13 39.87 4294967295
-4.26 -30.80 -25.17 4294967295
34.80 17.04 9.92 4294967295
0.36 -19.72 -34.80 4294967295
18.49 -8.93 -34.32 4294967295
33.37 9.55 -19.89 4294967295
13.91 0.11 -37.50 4294967295
10.08 1.97 -38.66 4294967295
12.36 -34.36 16.33 4294967295
-32.00 -10.48 -21.59 4294967295
-30.01 -25.68 -6.32 4294967295
-21.60 9.59 32.27 4294967295
18.58 31.93 15.33 4294967295
25.47 26.39 15.97 4294967295
33.33 -7.42 20.84 4294967295
7.39 39.03 4.69 4294967295
3.86 -28.69 27.61 4294967295
-31.97 22.57 8.26 4294967295
7.23 -16.11 35.89 4294967295
28.73 27.83 -0.53 4294967295
-5.39 -13.65 -37.21 4294967295
11.06 21.46 31.90 4294967295
-27.59 -15.55 24.44 4294967295
15.14 5.88 -36.56 4294967295
-11.64 14.35 35.48 4294967295
-6.26 -7.95 -38.70 4294967295
-18.96 32.60 13.32 4294967295
-34.19 1.05 20.74 4294967295
-15.31 16.26 33.18 4294967295
-8.72 32.98 20.88 4294967295
26.75 -23.13 -18.69 4294967295
25.89 -12.73 -27.70 4294967295
20.14 6.46 -33.95 4294967295
31.38 -24.71 2.19 4294967295
-22.03 32.92 5.56 4294967295
12.53 -17.41 -33.76 4294967295
37.45 14.04 0.34 4294967295
6.13 -36.62 14.89 4294967295
-7.98 -37.82 10.31 4294967295
9.53 35.96 -14.70 4294967295
28.05 -28.51 -0.14 4294967295
-11.70 37.02 9.64 4294967295
20.16 33.84 -6.97 4294967295
5.50 37.61 -12.45 4294967295
18.83 12.71 -32.92 4294967295
-25.85 4.85 30.14 4294967295
4.43 38.93 8.04 4294967295
15.20 35.85 -9.14 4294967295
-6.89 -20.74 -33.50 4294967295
27.70 17.84 22.68 4294967295
-7.77 39.24 -0.51 4294967295
-17.94 -19.87 29.73 4294967295
-4.12 -39.77 1.31 4294967295
15.44 -10.89 -35.26 4294967295
25.53 21.88 21.67 4294967295
-14.39 0.69 -37.31 4294967295
-37.05 -0.72 -15.05 4294967295
14.51 10.26 -35.84 4294967295
0.38 10.83 -38.51 4294967295
-19.65 25.53 23.71 4294967295
-7.58 -35.41 16.98 4294967295
-36.17 -13.76 10.10 4294967295
-12.48 4.85 37.69 4294967295
-31.73 -22.88 8.36 4294967295
-38.50 -10.83 0.91 4294967295
25.06 -20.52 -23.46 4294967295
23.23 -32.13 -5.28 4294967295
-35.75 4.85 17.28 4294967295
-21.31 18.83 -28.13 4294967295
-34.34 11.96 -16.66 4294967295
-27.64 -23.15 17.32 4294967295
-32.00 23.27 5.86 4294967295
-28.22 28.34 -0.57 4294967295
-15.01 -34.04 -14.68 4294967295
30.86 -19.98 -15.75 4294967295
-27.11 17.76 23.44 4294967295
30.82 17.79 -18.27 4294967295
34.10 19.72 6.94 4294967295
-17.47 26.43 24.42 4294967295
-27.66 22.38 -18.28 4294967295
6.06 29.01 -26.86 4294967295
15.49 -29.17 22.56 4294967295
10.61 17.16 -34.54 4294967295
-3.66 36.43 -16.10 4294967295
-34.57 -17.80 9.37 4294967295
29.64 -15.05 -22.25 4294967295
4.79 38.61 -9.28 4294967295
1.89 -13.44 37.63 4294967295
11.33 38.31 2.02 4294967295
-36.21 12.40 -11.63 4294967295
2.66 32.85 -22.66 4294967295
0.42 -36.83 -15.59 4294967295
-25.83 17.14 -25.28 4294967295
-11.33 -30.89 -22.74 4294967295
33.47 -21.11 5.82 4294967295
-13.27 36.21 -10.61 4294967295
39.25 7.57 1.50 4294967295
-33.99 -8.18 -19.43 4294967295
8.43 11.54 -37.36 4294967295
22.96 -3.47 32.57 4294967295
39.44 -6.39 -2.01 4294967295
-4.47 32.53 22.85 4294967295
1.28 26.04 30.33 4294967295
-15.75 35.06 11.08 4294967295
-0.72 26.85 29.64 4294967295
-32.90 5.97 21.96 4294967295
12.10 0.93 -38.12 4294967295
4.64 36.00 -16.82 4294967295
-17.65 24.02 -26.67 4294967295
-24.06 -31.79 3.20 4294967295
-5.65 32.74 22.28 4294967295
-28.65 26.07 9.96 4294967295
1.04 18.16 35.62 4294967295
-7.03 -8.23 38.51 4294967295
5.36 38.61 -8.99 4294967295
26.58 22.56 19.61 4294967295
-35.87 16.46 6.54 4294967295
-31.47 22.09 11.03 4294967295
2.31 -37.05 -14.89 4294967295
-25.94 -22.31 -20.73 4294967295
33.06 8.91 20.68 4294967295
-35.69 -11.65 13.80 4294967295
23.51 29.70 -12.83 4294967295
32.17 -8.58 22.16 4294967295
-1.17 -29.92 26.52 4294967295
11.38 29.45 -24.56 4294967295
4.79 -28.54 27.62 4294967295
-19.77 -23.50 25.62 4294967295
36.57 15.63 -4.30 4294967295
10.09 -36.91 -11.67 4294967295
-37.36 -2.61 14.05 4294967295
-13.66 19.28 32.28 4294967295
25.76 -24.55 18.27 4294967295
-32.54 -19.54 12.64 4294967295
35.23 -14.93 -11.66 4294967295
-22.54 -28.52 16.69 4294967295
4.19 -1.47 -39.75 4294967295
39.24 6.18 4.72 4294967295
27.95 26.51 -10.77 4294967295
27.44 19.02 -22.03 4294967295
16.43 -27.57 23.87 4294967295
-34.54 -19.47 5.30 4294967295
39.66 -5.18 -0.30 4294967295
20.45 -30.81 15.24 4294967295
3.32 -34.83 19.39 4294967295
-11.06 -22.21 31.38 4294967295
22.32 -30.73 12.55 4294967295
-0.14 -33.01 22.58 4294967295
25.39 25.26 17.81 4294967295
31.85 1.80 24.14 4294967295
-14.21 -37.26 -3.13 4294967295
15.20 30.03 -21.61 4294967295
29.59 26.22 -6.06 4294967295
-14.40 -13.52 34.78 4294967295
-37.73 -9.36 9.41 4294967295
-2.29 -4.83 -39.64 4294967295
-18.74 34.31 8.46 4294967295
-24.05 -14.92 -28.27 4294967295
-25.11 -12.38 28.57 4294967295
-16.87 -30.73 19.26 4294967295
-14.18 33.49 16.66 4294967295
23.43 -8.23 31.36 4294967295
-18.73 -34.66 6.93 4294967295
7.70 -5.13 -38.91 4294967295
-29.98 8.75 -25.00 4294967295
-38.22 -4.18 -11.04 4294967295
-16.56 -18.32 31.47 4294967295
-9.24 20.99 -32.77 4294967295
-25.56 6.16 -30.14 4294967295
14.51 4.12 -37.05 4294967295
9.32 11.88 37.04 4294967295
8.03 36.71 13.72 4294967295
-33.12 13.24 -18.10 4294967295
-32.75 -22.93 -1.28 4294967295
27.80 27.24 -9.22 4294967295
-11.86 32.74 19.68 4294967295
-13.01 -34.71 -15.04 4294967295
-26.17 -12.99 -27.32 4294967295
27.79 27.89 -7.08 4294967295
22.60 -31.74 -9.05 4294967295
23.99 31.97 1.43 4294967295
18.72 -32.07 14.86 4294967295
24.97 -26.68 -16.28 4294967295
-1.90 4.74 -39.67 4294967295
-31.97 18.52 15.33 4294967295
38.94 7.85 -4.66 4294967295
-29.30 5.35 26.69 4294967295
19.71 31.67 -14.45 4294967295
-38.95 0.96 9.03 4294967295
-8.28 -36.11 -15.09 4294967295
8.30 33.90 -19.54 4294967295
-38.88 8.28 -4.45 4294967295
19.64 4.47 -34.56 4294967295
34.10 -1.06 -20.88 4294967295
21.61 -33.55 -2.63 4294967295
18.93 -21.79 -27.69 4294967295
-24.13 2.73 -31.79 4294967295
-33.35 -13.70 -17.32 4294967295
27.06 -21.86 -19.74 4294967295
35.04 -14.24 -13.01 4294967295
-33.57 18.82 -10.90 4294967295
-29.30 22.86 14.80 4294967295
-0.04 -34.39 -20.42 4294967295
-39.75 -4.46 -0.46 4294967295
-6.07 -39.37 -3.68 4294967295
14.66 -6.22 36.69 4294967295
29.30 -12.76 -24.05 4294967295
-35.20 18.10 5.80 4294967295
13.37 24.41 28.73 4294967295
-6.44 -25.69 -29.98 4294967295
-18.87 -5.72 -34.80 4294967295
26.43 -21.79 -20.66 4294967295
30.16 25.63 -5.76 4294967295
-31.89 -13.52 -20.01 4294967295
10.05 -36.25 13.60 4294967295
30.90 -4.32 -25.03 4294967295
14.75 24.48 -27.98 4294967295
16.73 26.43 -24.93 4294967295
15.08 -8.57 36.04 4294967295
7.78 26.86 28.60 4294967295
-34.76 -4.85 19.19 4294967295
17.51 -32.50 15.39 4294967295
-5.92 -38.79 7.75 4294967295
-6.84 -17.02 35.55 4294967295
0.59 -16.35 -36.50 4294967295
7.41 -29.10 26.42 4294967295
-7.45 22.41 -32.28 4294967295
13.00 5.89 -37.37 4294967295
-1.95 -39.63 -5.10 4294967295
-7.59 -34.27 19.18 4294967295
-35.85 12.77 12.31 4294967295
4.72 15.42 36.60 4294967295
28.93 -7.47 26.60 4294967295
18.39 -34.74 -7.41 4294967295
-27.64 -17.57 -22.96 4294967295
-24.09 -6.18 31.33 4294967295
29.77 -19.39 18.38 4294967295
39.66 -0.22 5.23 4294967295
6.75 39.20 4.23 4294967295
9.05 -37.16 11.73 4294967295
0.05 -36.27 16.87 4294967295
-17.09 7.46 -35.39 4294967295
-4.30 0.62 -39.76 4294967295
17.94 -27.40 -22.97 4294967295
34.52 -5.34 19.50 4294967295
31.93 17.61 -16.44 4294967295
-18.43 29.36 19.96 4294967295
-30.22 -22.16 -13.99 4294967295
-30.44 19.68 -16.92 4294967295
35.12 -5.29 -18.40 4294967295
-26.81 17.44 24.02 4294967295
-3.19 24.78 31.24 4294967295
-21.74 -29.08 16.79 4294967295
-20.25 -15.71 30.71 4294967295
11.58 -19.75 32.80 4294967295
-30.14 -5.57 25.70 4294967295
-37.34 13.63 -4.44 4294967295
-16.66 -5.00 -36.02 4294967295
32.69 21.50 8.31 4294967295
-17.29 28.48 -22.13 4294967295
33.92 -17.82 11.47 4294967295
-17.20 32.17 16.41 4294967295
9.96 -35.56 15.37 4294967295
15.87 -10.09 -35.30 4294967295
-24.90 -6.92 30.53 4294967295
11.97 21.25 -31.71 4294967295
-32.34 -14.39 -18.63 4294967295
-26.63 -23.67 -18.19 4294967295
36.50 -8.55 13.96 4294967295
18.68 34.02 -9.67 4294967295
-36.67 8.85 -13.29 4294967295
37.70 -13.03 -2.98 4294967295
16.97 33.05 14.82 4294967295
-37.77 -10.37 -8.13 4294967295
-27.56 -11.70 26.53 4294967295
33.86 -20.81 4.55 4294967295
22.31 -15.33 -29.45 4294967295
35.12 -4.50 -18.61 4294967295
-16.34 -16.65 32.49 4294967295
-2.79 39.90 0.59 4294967295
-37.43 -12.57 6.43 4294967295
26.75 -25.27 15.68 4294967295
-26.74 -8.82 28.41 4294967295
-24.61 -7.73 -30.57 4294967295
36.94 -13.26 7.73 4294967295
25.34 -8.90 -29.64 4294967295
-10.29 -6.15 38.16 4294967295
-23.36 -14.41 29.10 4294967295
10.25 18.90 -33.73 4294967295
-23.28 -11.93 -30.26 4294967295
-20.73 20.74 -27.20 4294967295
6.41 -5.22 39.14 4294967295
18.26 14.25 -32.61 4294967295
11.98 3.88 -37.97 4294967295
34.12 -10.17 18.24 4294967295
13.80 -11.33 -35.79 4294967295
16.19 -0.01 36.58 4294967295
9.38 20.35 -33.14 4294967295
30.43 18.51 -18.20 4294967295
-22.49 31.53 -9.99 4294967295
-5.36 -2.01 39.59 4294967295
11.21 -29.80 -24.21 4294967295
-38.21 9.83 6.61 4294967295
32.55 1.06 -23.22 4294967295
-9.71 -34.40 -17.96 4294967295
28.76 20.82 18.41 4294967295
-23.87 -29.36 12.97 4294967295
-33.71 21.43 -2.06 4294967295
-37.36 10.73 9.46 4294967295
-35.26 4.04 18.45 4294967295
37.46 13.83 2.34 4294967295
4.13 -37.07 -14.44 4294967295
-0.57 -25.94 30.44 4294967295
9.39 34.90 -17.14 4294967295
-8.58 34.92 -17.52 4294967295
-20.28 26.94 21.51 4294967295
38.97 -8.91 1.44 4294967295
-38.31 11.28 2.21 4294967295
27.03 -29.47 -1.01 4294967295
-28.38 15.23 23.71 4294967295
7.44 -23.68 31.37 4294967295
-23.61 -29.21 13.77 4294967295
-15.94 9.49 35.44 4294967295
5.66 -23.79 31.65 4294967295
36.80 14.04 -6.94 4294967295
-28.93 18.81 20.23 4294967295
5.45 36.54 15.33 4294967295
31.12 -5.69 -24.48 4294967295
30.84 -22.45 12.05 4294967295
24.79 26.27 17.18 4294967295
36.99 4.25 -14.62 4294967295
-24.77 6.06 30.82 4294967295
9.21 35.57 -15.82 4294967295
-7.90 -11.42 37.51 4294967295
-39.69 -0.87 4.87 4294967295
9.12 -23.07 31.38 4294967295
23.62 -28.95 -14.29 4294967295
25.54 27.65 -13.53 4294967295
5.77 3.88 39.39 4294967295
-15.57 -27.97 -23.98 4294967295
-28.78 5.26 -27.28 4294967295
9.00 -38.04 8.50 4294967295
3.75 -14.48 37.10 4294967295
17.78 12.91 -33.43 4294967295
-0.84 -3.05 39.88 4294967295
-20.79 33.30 7.67 4294967295
-34.99 -13.17 -14.22 4294967295
-6.84 34.85 18.40 4294967295
-31.36 6.22 -24.04 4294967295
-34.74 6.49 -18.74 4294967295
-0.70 32.77 22.93 4294967295
-30.59 18.37 -18.08 4294967295
-35.39 -2.74 18.45 4294967295
-0.85 -39.37 7.04 4294967295
-27.45 28.96 2.78 4294967295
-13.91 11.99 35.53 4294967295
-19.15 10.06 33.65 4294967295
-31.13 6.44 -24.28 4294967295
-30.78 2.49 25.42 4294967295
-20.44 -21.00 27.22 4294967295
20.13 0.17 34.57 4294967295
30.84 12.85 -21.99 4294967295
35.61 -17.61 -4.64 4294967295
-33.19 4.75 -21.81 4294967295
39.83 3.00 2.09 4294967295
33.85 -8.63 -19.48 4294967295
38.08 -9.41 7.83 4294967295
1.83 -26.88 -29.57 4294967295
-17.27 28.27 -22.41 4294967295
13.49 30.60 -21.95 4294967295
7.91 -13.84 -36.69 4294967295
-8.35 20.02 -33.61 4294967295
-27.79 26.90 -10.21 4294967295
-25.08 -12.44 28.57 4294967295
-5.55 -30.83 -24.87 4294967295
-8.11 38.25 -8.44 4294967295
-29.94 25.78 -6.25 4294967295
-4.55 39.57 -3.62 4294967295
-33.90 20.79 4.31 4294967295
8.35 -38.72 5.55 4294967295
-5.76 -37.12 13.73 4294967295
17.81 -4.73 -35.50 4294967295
-36.30 16.79 0.54 4294967295
-27.50 5.73 -28.47 4294967295
-15.97 6.96 36.01 4294967295
-10.28 35.36 -15.61 4294967295
-34.93 -12.79 -14.71 4294967295
-15.02 36.93 -3.28 4294967295
-33.29 -20.68 8.01 4294967295
-24.76 -9.10 -30.07 4294967295
-9.83 -16.29 -35.19 4294967295
-39.45 6.24 2.12 4294967295
29.45 -20.19 -18.02 4294967295
14.29 2.15 37.30 4294967295
34.14 18.18 -10.19 4294967295
30.64 12.39 -22.53 4294967295
10.31 22.07 -31.73 4294967295
29.92 3.93 26.25 4294967295
1.04 -34.62 20.00 4294967295
-28.07 20.53 -19.77 4294967295
30.68 4.38 25.29 4294967295
27.93 26.66 -10.45 4294967295
20.72 33.00 -9.03 4294967295
-36.00 -2.07 -17.32 4294967295
29.86 -19.27 18.37 4294967295
18.97 33.41 -11.12 4294967295
22.52 -9.61 31.63 4294967295
13.05 36.12 -11.17 4294967295
32.01 23.99 0.15 4294967295
17.84 2.32 -35.73 4294967295
37.06 15.06 0.06 4294967295
-10.06 -30.70 23.58 4294967295
39.61 -0.53 5.58 4294967295
-9.21 38.48 5.87 4294967295
32.15 9.67 -21.75 4294967295
-26.73 -12.87 -26.83 4294967295
-2.23 -9.61 -38.76 4294967295
15.84 15.82 -33.15 4294967295
-34.00 4.93 -20.48 4294967295
-26.23 -9.42 -28.70 4294967295
-24.51 26.53 -17.20 4294967295
31.61 17.74 16.92 4294967295
-3.45 6.38 39.34 4294967295
21.87 -24.47 22.87 4294967295
-21.34 9.05 32.60 4294967295
-39.73 -3.75 2.75 4294967295
2.06 10.72 -38.48 4294967295
6.14 -6.36 39.01 4294967295
11.85 25.80 28.18 4294967295
38.57 -6.65 8.23 4294967295
8.32 38.62 -6.28 4294967295
36.13 -11.50 -12.74 4294967295
-5.99 4.53 39.29 4294967295
39.34 -7.07 -1.59 4294967295
-34.76 -15.78 -11.96 4294967295
27.59 17.38 -23.17 4294967295
-26.91 1.71 -29.55 4294967295
6.18 -24.29 -31.18 4294967295
-26.67 -18.08 23.70 4294967295
-34.52 15.61 -12.84 4294967295
29.34 -26.24 7.09 4294967295
-20.48 -32.97 -9.69 4294967295
-28.91 -15.03 -23.20 4294967295
35.02 4.22 -18.87 4294967295
-36.50 -15.69 4.62 4294967295
33.43 -16.30 -14.73 4294967295
7.97 38.84 5.27 4294967295
-3.28 -21.96 -33.27 4294967295
-24.94 -2.09 -31.20 4294967295
-18.75 -16.37 -31.31 4294967295
-14.40 33.25 16.94 4294967295
-30.64 4.14 25.38 4294967295
-4.56 39.60 3.35 4294967295
20.51 0.24 -34.34 4294967295
-29.63 22.66 -14.44 4294967295
-29.74 -13.85 22.88 4294967295
-28.54 26.37 9.49 4294967295
-22.57 -30.55 12.55 4294967295
-19.16 22.89 -26.62 4294967295
31.21 -22.54 10.86 4294967295
-14.01 -15.06 -34.31 4294967295
-9.42 -24.67 30.05 4294967295
7.94 30.37 -24.79 4294967295
32.27 23.31 3.92 4294967295
23.34 32.22 -4.11 4294967295
-19.97 -28.69 -19.44 4294967295
27.37 -6.39 28.46 4294967295
34.58 -13.71 -14.70 4294967295
7.06 25.90 -29.65 4294967295
-31.16 24.17 6.68 4294967295
-1.00 23.53 -32.33 4294967295
35.28 16.84 -8.47 4294967295
-4.49 38.89 8.19 4294967295
20.85 -17.30 -29.43 4294967295
-23.03 -30.78 11.06 4294967295
-9.21 30.66 23.98 4294967295
-39.18 0.39 -8.04 4294967295
29.24 -25.51 -9.72 4294967295
-34.77 13.23 14.69 4294967295
33.12 16.13 15.57 4294967295
-27.32 28.53 6.28 4294967295
-1.26 -22.52 -33.03 4294967295
15.30 -30.77 20.47 4294967295
-10.78 -27.26 -27.21 4294967295
-19.95 23.33 25.65 4294967295
-15.88 -0.63 36.71 4294967295
13.79 37.55 0.49 4294967295
5.86 -38.43 -9.41 4294967295
34.57 -20.10 -1.00 4294967295
17.89 -35.31 -5.78 4294967295
23.31 -15.37 -28.65 4294967295
-11.53 25.19 28.85 4294967295
-32.59 -11.42 20.19 4294967295
-38.88 5.79 7.38 4294967295
21.85 -11.66 31.41 4294967295
-35.00 9.43 -16.92 4294967295
-7.29 12.16 37.40 4294967295
30.03 20.90 16.18 4294967295
-24.03 25.69 -19.05 4294967295
-17.09 -35.72 -5.67 4294967295
23.88 -12.95 29.36 4294967295
21.98 3.23 33.26 4294967295
38.96 8.71 2.49 4294967295
-2.09 -23.05 -32.62 4294967295
-24.07 13.50 28.96 4294967295
-24.77 -19.39 24.70 4294967295
-31.75 -3.93 24.01 4294967295
-37.13 -7.13 13.06 4294967295
-16.61 -2.78 36.28 4294967295
24.29 16.52 -27.14 4294967295
-25.38 -17.13 -25.73 4294967295
-10.90 -37.63 8.08 4294967295
14.00 -22.53 29.94 4294967295
-38.93 -0.71 9.14 4294967295
29.42 23.94 -12.71 4294967295
-38.49 -9.59 5.18 4294967295
21.72 -17.32 28.78 4294967295
-25.66 -14.44 27.08 4294967295
8.96 -36.10 14.72 4294967295
19.14 15.34 -31.60 4294967295
4.61 -37.22 -13.92 4294967295
-22.90 -10.46 -31.09 4294967295
30.23 -19.33 17.69 4294967295
-35.09 -18.65 4.54 4294967295
11.73 38.24 0.43 4294967295
22.16 29.01 -16.35 4294967295
26.07 25.33 -16.69 4294967295
22.68 -0.52 32.94 4294967295
7.33 13.61 -36.89 4294967295
-27.20 28.97 4.57 4294967295
34.44 -7.81 18.78 4294967295
-12.38 -10.51 -36.55 4294967295
0.92 33.96 21.12 4294967295
13.39 19.95 -31.98 4294967295
3.71 -11.45 -38.14 4294967295
-28.44 21.38 18.26 4294967295
12.52 -37.74 -4.31 4294967295
-35.76 -17.61 3.35 4294967295
-20.31 11.74 -32.40 4294967295
9.88 29.33 25.34 4294967295
-11.01 -11.70 -36.63 4294967295
3.08 39.64 -4.34 4294967295
-38.22 7.77 8.88 4294967295
27.14 27.98 8.97 4294967295
36.64 -13.44 -8.78 4294967295
-19.99 -33.46 -8.99 4294967295
-10.80 -32.09 -21.29 4294967295
8.71 -32.18 -22.10 4294967295
-11.32 -37.18 -9.44 4294967295
-6.36 20.22 33.92 4294967295
-10.86 -37.42 -9.05 4294967295
1.60 25.22 -31.00 4294967295
37.29 -2.58 14.24 4294967295
2.48 7.63 -39.19 4294967295
31.00 25.27 -0.54 4294967295
-37.55 3.94 13.20 4294967295
-17.04 -35.94 -4.23 4294967295
4.39 0.39 39.76 4294967295
25.01 28.62 12.47 4294967295
-31.60 23.03 8.44 4294967295
9.79 36.84 12.13 4294967295
-2.68 -39.83 2.48 4294967295
-38.89 6.47 -6.74 4294967295
-11.68 32.76 19.76 4294967295
24.03 -27.71 15.97 4294967295
-27.90 -20.47 -20.06 4294967295
-37.52 4.50 13.12 4294967295
14.69 -37.01 3.80 4294967295
6.90 -30.07 25.46 4294967295
-0.03 -37.84 -12.96 4294967295
-30.52 24.99 6.67 4294967295
-9.63 16.88 34.96 4294967295
4.83 -34.86 -19.01 4294967295
-10.52 -12.75 -36.42 4294967295
19.97 -34.65 -0.65 4294967295
5.22 -21.55 -33.29 4294967295
0.41 -20.69 -34.23 4294967295
6.74 36.24 -15.54 4294967295
25.82 -13.72 -27.30 4294967295
-18.83 -13.37 32.66 4294967295
0.94 -33.38 22.02 4294967295
16.59 -27.75 -23.55 4294967295
15.03 32.83 -17.21 4294967295
-11.54 36.51 11.57 4294967295
-10.06 -38.54 3.70 4294967295
2.98 -2.18 -39.83 4294967295
38.04 11.93 3.31 4294967295
-27.69 26.92 -10.43 4294967295
-19.20 -33.39 -10.79 4294967295
36.36 -4.70 15.99 4294967295
-23.20 -9.89 -31.05 4294967295
25.85 -28.78 -10.16 4294967295
15.82 -29.94 -21.30 4294967295
-3.91 38.91 -8.43 4294967295
1.92 32.56 23.15 4294967295
-12.88 29.97 23.15 4294967295
-31.15 -18.47 -16.98 4294967295
-34.29 -18.08 -9.85 4294967295
33.77 20.20 7.19 4294967295
-7.54 17.55 35.15 4294967295
-25.84 25.20 -17.25 4294967295
22.97 18.13 -27.28 4294967295
23.19 32.29 4.42 4294967295
-21.67 21.47 25.87 4294967295
28.46 25.40 -12.05 4294967295
14.27 11.19 35.65 4294967295
18.38 21.13 28.56 4294967295
-38.26 -9.37 -6.98 4294967295
-20.54 34.01 4.64 4294967295
-8.20 29.95 25.22 4294967295
26.42 -4.47 29.70 4294967295
12.37 14.85 35.02 4294967295
6.61 -35.68 -16.83 4294967295
26.70 -28.23 9.49 4294967295
26.68 25.48 -15.46 4294967295
-23.47 -29.06 14.31 4294967295
-1.67 9.42 38.84 4294967295
-19.62 22.07 26.98 4294967295
36.57 -15.29 -5.40 4294967295
-13.24 36.73 8.69 4294967295
-24.94 18.37 25.31 4294967295
-17.43 35.82 3.62 4294967295
10.34 32.26 -21.27 4294967295
38.31 10.56 -4.60 4294967295
12.36 4.15 -37.82 4294967295
17.83 -15.94 -32.06 4294967295
-17.13 -30.94 18.70 4294967295
9.62 35.46 15.81 4294967295
4.83 39.33 -5.45 4294967295
18.49 -17.85 -30.65 4294967295
25.50 29.62 8.52 4294967295
-5.07 -3.65 39.51 4294967295
5.19 -9.43 38.52 4294967295
38.75 9.91 -0.55 4294967295
5.49 -19.60 -34.43 4294967295
22.89 16.69 28.24 4294967295
11.08 7.35 -37.73 4294967295
15.30 -36.78 3.60 4294967295
-38.14 -7.69 9.29 4294967295
-5.04 -38.22 -10.66 4294967295
-9.77 -30.27 24.25 4294967295
-1.21 38.90 -9.22 4294967295
-15.18 2.59 36.92 4294967295
-24.70 8.48 -30.30 4294967295
6.26 38.91 6.83 4294967295
31.24 -15.44 -19.64 4294967295
28.28 15.49 23.67 4294967295
11.80 -33.72 -17.99 4294967295
-12.46 -12.54 35.88 4294967295
4.85 -6.50 -39.17 4294967295
-19.05 32.91 -12.41 4294967295
8.93 38.82 -3.68 4294967295
-16.40 -32.11 17.31 4294967295
-30.94 -23.18 10.25 4294967295
38.03 5.05 11.32 4294967295
-6.87 39.38 1.38 4294967295
-26.51 26.15 14.60 4294967295
-13.37 -17.24 -33.53 4294967295
-3.55 11.75 38.07 4294967295
10.15 35.76 14.77 4294967295
36.04 15.16 -8.44 4294967295
-11.64 -36.93 10.04 4294967295
-39.95 -0.59 1.82 4294967295
29.00 27.32 -3.55 4294967295
33.60 -20.41 7.38 4294967295
-1.51 14.12 37.39 4294967295
-9.76 37.16 -11.14 4294967295
14.93 0.37 -37.11 4294967295
37.07 13.96 5.58 4294967295
28.72 -16.74 -22.25 4294967295
-31.79 -16.92 17.42 4294967295
-14.10 -35.22 -12.67 4294967295
7.62 14.04 -36.67 4294967295
-4.15 35.25 -18.45 4294967295
2.06 -6.45 -39.42 4294967295
33.18 -14.89 16.66 4294967295
15.99 -23.38 -28.25 4294967295
12.53 35.62 -13.21 4294967295
-29.43 26.96 -2.74 4294967295
-4.58 -38.29 10.62 4294967295
11.15 34.13 -17.62 4294967295
-29.91 -26.00 5.40 4294967295
1.25 39.79 -3.89 4294967295
-6.99 24.94 30.48 4294967295
-22.89 -16.48 -28.37 4294967295
7.08 -3.75 39.19 4294967295
-7.70 8.93 38.22 4294967295
-25.91 15.54 -26.22 4294967295
11.97 -33.84 17.66 4294967295
-12.72 -3.27 37.78 4294967295
38.77 -2.83 9.44 4294967295
24.67 -19.97 24.34 4294967295
-7.34 -24.92 30.42 4294967295
19.76 -17.81 29.87 4294967295
4.44 -33.63 -21.19 4294967295
7.42 -39.17 3.23 4294967295
0.88 7.02 39.37 4294967295
-9.73 11.01 -37.20 4294967295
-29.80 -24.80 9.86 4294967295
5.40 21.11 -33.54 4294967295
16.70 19.47 30.69 4294967295
1.52 32.32 -23.52 4294967295
15.38 -31.64 19.03 4294967295
35.73 10.76 -14.41 4294967295
-10.26 -11.15 -37.02 4294967295
2.26 27.22 -29.22 4294967295
-25.98 -28.28 -11.18 4294967295
-4.69 38.60 -9.39 4294967295
-9.53 -38.69 -3.45 4294967295
-1.43 -39.28 -7.43 4294967295
4.98 21.46 33.38 4294967295
-27.02 14.81 25.51 4294967295
0.96 27.13 29.38 4294967295
-39.43 2.84 -6.10 4294967295
17.12 -36.15 0.18 4294967295
-11.99 -35.97 12.73 4294967295
-0.44 7.82 -39.23 4294967295
-12.19 -6.29 37.58 4294967295
15.11 -10.57 -35.50 4294967295
-9.57 -35.70 -15.31 4294967295
-32.27 10.37 -21.23 4294967295
-10.53 18.97 33.61 4294967295
-35.05 8.79 -17.16 4294967295
18.99 -33.11 11.97 4294967295
-31.95 -24.06 0.00 4294967295
24.24 -18.65 25.78 4294967295
-32.88 -22.75 1.13 4294967295
0.66 5.27 39.65 4294967295
5.50 -8.23 -38.76 4294967295
30.73 -25.33 -3.72 4294967295
-39.61 -2.57 4.97 4294967295
10.00 -38.54 -3.82 4294967295
-22.04 -8.09 -32.39 4294967295
9.74 -4.36 38.55 4294967295
23.70 -27.83 16.25 4294967295
33.90 20.85 3.99 4294967295
-17.74 -33.13 -13.70 4294967295
36.99 -0.78 -15.20 4294967295
-18.09 -16.20 31.79 4294967295
14.85 -37.14 0.20 4294967295
9.07 38.63 5.01 4294967295
-35.98 -10.39 -14.06 4294967295
4.67 12.78 -37.61 4294967295
12.00 34.24 16.85 4294967295
20.40 18.23 29.18 4294967295
-6.46 -3.35 39.33 4294967295
-30.72 -19.15 -17.01 4294967295
20.56 34.29 -1.25 4294967295
25.88 -6.10 -29.89 4294967295
-39.92 2.11 1.48 4294967295
8.48 -2.29 -39.02 4294967295
21.03 -33.57 5.56 4294967295
35.09 12.99 -14.14 4294967295
15.37 31.30 -19.59 4294967295
20.27 -0.10 -34.49 4294967295
22.93 -25.33 -20.79 4294967295
-32.19 19.50 13.54 4294967295
0.62 25.64 30.69 4294967295
20.29 -28.16 19.89 4294967295
-16.50 1.56 36.41 4294967295
-37.67 -11.67 6.69 4294967295
-11.93 -37.73 -5.83 4294967295
-17.78 -35.82 -0.91 4294967295
-6.98 35.05 -17.97 4294967295
18.63 -14.67 32.22 4294967295
-19.21 -35.08 -0.55 4294967295
39.08 1.97 -8.27 4294967295
39.42 5.69 3.69 4294967295
23.33 31.66 -7.30 4294967295
39.08 -0.21 8.52 4294967295
6.76 -10.94 -37.88 4294967295
-23.31 -8.25 31.44 4294967295
38.04 -2.35 -12.13 4294967295
30.13 -17.98 -19.20 4294967295
-8.02 -21.67 -32.66 4294967295
-10.09 31.02 -23.15 4294967295
-0.62 24.56 -31.56 4294967295
-28.41 5.07 -27.69 4294967295
25.70 -30.21 5.17 4294967295
-13.85 37.52 0.84 4294967295
-6.46 39.43 1.79 4294967295
5.99 -15.21 -36.51 4294967295
0.75 -20.42 -34.39 4294967295
20.35 -17.69 -29.54 4294967295
29.58 2.56 -26.80 4294967295
25.54 21.29 -22.24 4294967295
23.09 3.63 -32.46 4294967295
21.69 -22.24 -25.20 4294967295
-19.68 -34.79 1.40 4294967295
18.01 31.70 -16.45 4294967295
-31.12 24.07 7.22 4294967295
-27.82 -28.64 2.41 4294967295
14.66 -9.66 -35.94 4294967295
11.33 -33.23 -19.17 4294967295
-11.16 36.24 -12.73 4294967295
-23.38 2.90 32.32 4294967295
11.93 18.02 -33.66 4294967295
-4.29 10.43 38.38 4294967295
12.71 -35.66 -12.92 4294967295
7.23 -13.63 -36.91 4294967295
20.19 32.18 -12.52 4294967295
21.03 -23.95 24.17 4294967295
-32.69 -21.12 9.22 4294967295
-38.37 0.14 -11.29 4294967295
-16.22 31.82 18.01 4294967295
17.54 -16.78 31.79 4294967295
16.68 -28.97 -21.97 4294967295
27.21 -29.01 -4.21 4294967295
-3.29 5.97 39.41 4294967295
-39.23 0.00 7.80 4294967295
-6.29 38.69 -7.96 4294967295
27.39 -25.65 13.85 4294967295
-35.62 12.75 -13.00 4294967295
34.58 18.98 6.61 4294967295
-21.78 32.69 7.55 4294967295
-12.35 -35.11 -14.65 4294967295
24.03 30.04 -10.97 4294967295
-37.13 -13.32 6.63 4294967295
22.37 25.76 -20.88 4294967295
33.25 -21.27 -6.50 4294967295
-22.93 23.55 -22.79 4294967295
-20.68 29.81 16.85 4294967295
2.66 39.01 8.43 4294967295
24.94 16.75 26.41 4294967295
14.54 21.01 30.78 4294967295
-14.99 35.88 9.37 4294967295
30.23 -25.52 -5.93 4294967295
6.39 39.20 -4.75 4294967295
-16.99 -3.11 -36.08 4294967295
9.77 38.71 2.54 4294967295
-14.27 -35.18 -12.60 4294967295
-31.27 24.72 3.31 4294967295
-19.37 15.93 31.16 4294967295
-11.84 -33.09 19.11 4294967295
4.29 29.20 -27.00 4294967295
-7.03 30.49 -24.92 4294967295
-19.81 -21.92 26.96 4294967295
-4.39 -7.06 39.13 4294967295
-34.39 18.42 -8.84 4294967295
34.50 11.21 -16.86 4294967295
-15.50 33.72 -14.92 4294967295
3.93 39.78 -1.37 4294967295
11.69 -10.53 36.78 4294967295
-2.81 39.79 2.93 4294967295
-12.22 6.65 37.50 4294967295
11.34 30.05 -23.84 4294967295
15.60 18.25 32.00 4294967295
-7.29 -38.81 6.39 4294967295
-9.84 -30.38 24.09 4294967295
31.21 -11.67 -22.13 4294967295
-16.45 36.20 4.31 4294967295
19.66 -34.24 -6.41 4294967295
-10.37 36.87 -11.52 4294967295
-31.19 -14.32 20.54 4294967295
29.97 25.99 -5.13 4294967295
-20.98 31.17 13.73 4294967295
-14.47 -3.21 37.15 4294967295
-13.41 37.19 6.11 4294967295
14.77 1.50 -37.14 4294967295
19.93 -33.98 -6.91 4294967295
-13.96 -37.43 -1.96 4294967295
-39.34 0.86 7.20 4294967295
-16.10 -30.91 19.64 4294967295
9.22 31.87 22.34 4294967295
13.85 -26.42 26.64 4294967295
19.21 8.96 -33.92 4294967295
-28.38 -12.75 25.13 4294967295
29.51 9.87 -25.14 4294967295
-23.39 31.85 6.21 4294967295
-34.98 -18.27 6.53 4294967295
-9.24 15.10 -35.87 4294967295
-0.51 17.55 -35.94 4294967295
-5.80 -17.98 35.26 4294967295
-6.71 13.33 37.11 4294967295
6.62 11.22 37.82 4294967295
16.92 -32.41 16.23 4294967295
-21.01 8.16 -33.05 4294967295
-20.25 -7.78 -33.61 4294967295
23.67 -22.76 22.83 4294967295
1.42 7.81 -39.20 4294967295
-37.95 12.62 0.68 4294967295
-33.50 10.08 -19.40 4294967295
36.01 -13.36 -11.17 4294967295
31.26 5.13 24.42 4294967295
19.92 32.85 -11.14 4294967295
16.25 4.37 36.29 4294967295
-15.90 -9.83 35.37 4294967295
-21.29 -32.66 8.94 4294967295
9.24 -38.91 -0.83 4294967295
-29.54 26.97 -0.45 4294967295
-2.16 -12.03 38.09 4294967295
31.60 6.21 -23.73 4294967295
-36.24 16.72 2.64 4294967295
-2.76 -39.81 -2.75 4294967295
-26.73 -23.75 -17.93 4294967295
9.91 3.04 38.63 4294967295
-21.55 31.18 12.78 4294967295
13.31 -2.23 -37.66 4294967295
-36.16 -3.92 -16.65 4294967295
17.64 -35.69 -3.88 4294967295
-1.20 -21.83 33.50 4294967295
38.87 -5.63 7.55 4294967295
-22.61 -11.50 -30.93 4294967295
33.99 11.55 17.64 4294967295
-16.32 -36.14 5.28 4294967295
12.92 -37.68 -3.59 4294967295
-8.43 37.53 10.98 4294967295
36.55 -5.46 -15.31 4294967295
25.80 1.55 -30.53 4294967295
20.87 -7.88 -33.20 4294967295
5.71 8.06 38.76 4294967295
31.79 -24.00 -3.61 4294967295
-15.11 -36.35 7.07 4294967295
-12.65 -28.03 -25.58 4294967295
-28.12 28.18 -3.87 4294967295
22.98 -10.41 -31.04 4294967295
20.04 -34.58 1.67 4294967295
-23.05 10.52 -30.96 4294967295
19.30 -12.22 -32.84 4294967295
34.62 -13.47 14.83 4294967295
4.85 6.72 39.13 4294967295
-33.40 -21.99 0.99 4294967295
37.50 -1.95 13.77 4294967295
16.07 30.01 21.01 4294967295
4.83 -27.46 -28.68 4294967295
-30.04 -25.70 6.13 4294967295
-39.76 -1.78 4.00 4294967295
17.21 -35.45 -6.86 4294967295
-38.50 9.05 -6.00 4294967295
-20.10 29.15 18.61 4294967295
-21.94 4.22 -33.18 4294967295
7.69 -14.21 -36.59 4294967295
33.51 -1.65 -21.78 4294967295
-31.57 15.81 -18.80 4294967295
39.23 -4.83 6.16 4294967295
-6.12 -7.81 38.75 4294967295
15.93 -24.58 -27.24 4294967295
7.72 -36.49 14.45 4294967295
-27.42 13.88 25.60 4294967295
4.00 -34.75 -19.40 4294967295
-31.03 22.26 -11.91 4294967295
32.21 5.48 23.07 4294967295
-35.88 15.49 -8.53 4294967295
25.86 -10.07 -28.81 4294967295
6.12 -37.45 12.65 4294967295
-27.15 11.69 26.95 4294967295
28.80 16.86 -22.05 4294967295
-1.83 13.06 -37.76 4294967295
-35.90 -17.00 -4.71 4294967295
32.55 -23.22 -1.26 4294967295
18.89 35.24 1.18 4294967295
-22.24 -33.23 -1.01 4294967295
16.51 34.35 12.14 4294967295
-28.39 24.35 14.18 4294967295
-27.87 -24.80 -14.42 4294967295
0.75 39.99 -0.26 4294967295
2.10 -24.22 -31.76 4294967295
-31.89 -24.15 -0.04 4294967295
32.86 -15.98 -16.27 4294967295
-17.91 -29.07 -20.83 4294967295
-22.66 -24.82 21.69 4294967295
-36.17 -4.62 -16.43 4294967295
36.59 13.59 8.75 4294967295
-27.60 6.35 28.24 4294967295
25.76 -21.44 -21.83 4294967295
27.71 -28.61 -3.69 4294967295
-25.20 -23.91 -19.82 4294967295
1.83 -0.36 39.96 4294967295
-21.47 32.81 -7.93 4294967295
-28.12 19.82 20.41 4294967295
-27.91 -13.20 -25.43 4294967295
-3.20 -22.46 -32.95 4294967295
15.13 0.85 -37.02 4294967295
8.86 37.46 -10.87 4294967295
-33.64 19.31 -9.77 4294967295
-34.64 11.53 16.34 4294967295
-9.74 5.56 -38.40 4294967295
35.88 15.93 7.65 4294967295
3.74 1.51 -39.80 4294967295
-12.63 -29.17 -24.28 4294967295
13.48 28.36 24.78 4294967295
8.01 -37.70 10.71 4294967295
13.63 37.52 -2.56 4294967295
33.67 -15.08 -15.45 4294967295
9.96 36.45 13.12 4294967295
32.12 -22.52 7.81 4294967295
12.02 8.09 37.28 4294967295
2.35 32.95 22.56 4294967295
31.46 7.76 -23.45 4294967295
23.19 -28.43 -15.94 4294967295
22.64 -30.80 -11.79 4294967295
39.23 -2.82 7.30 4294967295
-36.61 -7.10 14.47 4294967295
-9.83 34.98 -16.73 4294967295
19.06 -14.63 31.98 4294967295
15.65 -36.31 6.04 4294967295
27.84 -10.50 26.73 4294967295
36.87 1.99 15.38 4294967295
-27.26 -29.21 -1.87 4294967295
-30.58 19.33 -17.06 4294967295
-1.98 27.29 -29.18 4294967295
30.50 -21.86 13.86 4294967295
-6.80 -26.80 28.91 4294967295
8.13 9.98 37.87 4294967295
-6.04 -33.27 -21.37 4294967295
-34.22 -16.92 11.95 4294967295
11.87 28.47 25.46 4294967295
16.73 -35.77 6.35 4294967295
15.78 -20.87 -30.26 4294967295
4.59 2.34 39.67 4294967295
13.18 -34.22 -15.97 4294967295
-35.02 11.74 -15.35 4294967295
39.87 -2.50 -1.94 4294967295
-15.89 4.30 36.46 4294967295
38.50 10.06 4.10 4294967295
1.38 -7.72 -39.22 4294967295
15.72 30.08 21.16 4294967295
-10.97 -18.16 33.91 4294967295
-37.65 4.57 -12.71 4294967295
-13.51 28.01 -25.16 4294967295
15.70 -28.67 -23.06 4294967295
-14.61 -36.99 -4.27 4294967295
12.74 13.49 35.44 4294967295
-31.93 -0.88 -24.08 4294967295
35.58 15.14 10.26 4294967295
-20.65 32.68 10.27 4294967295
0.29 -13.10 -37.79 4294967295
-29.94 0.46 26.52 4294967295
-1.67 -35.66 18.04 4294967295
-6.87 15.03 -36.43 4294967295
19.50 31.20 15.70 4294967295
-26.42 -2.65 -29.92 4294967295
-9.85 37.68 9.12 4294967295
17.89 -10.58 34.17 4294967295
27.43 -29.10 -0.81 4294967295
6.34 37.68 11.82 4294967295
-18.01 29.67 -19.89 4294967295
-16.90 -23.64 -27.48 4294967295
-5.05 -34.66 -19.31 4294967295
-26.69 -28.66 -8.17 4294967295
-20.95 -33.59 5.70 4294967295
-1.70 -23.15 -32.58 4294967295
28.01 -22.98 -16.95 4294967295
-18.82 34.77 6.06 4294967295
-15.47 -32.70 -17.06 4294967295
-3.97 1.88 39.76 4294967295
-21.76 28.38 -17.92 4294967295
-37.34 -11.77 -8.19 4294967295
-1.16 31.31 -24.87 4294967295
16.19 6.19 36.05 4294967295
-4.26 -39.71 2.31 4294967295
0.39 -37.67 13.44 4294967295
29.61 5.43 -26.34 4294967295
-27.78 21.57 19.06 4294967295
30.28 -25.37 6.28 4294967295
-9.17 -0.73 38.93 4294967295
25.99 -21.80 -21.20 4294967295
-4.42 34.84 -19.15 4294967295
34.01 17.67 11.44 4294967295
-37.32 -14.09 2.92 4294967295
39.95 1.00 -1.77 4294967295
-0.60 -29.84 26.63 4294967295
27.29 11.81 26.76 4294967295
-25.56 12.77 27.99 4294967295
-15.29 -26.67 -25.60 4294967295
9.54 -26.89 -28.04 4294967295
5.87 37.21 -13.44 4294967295
-1.78 27.38 -29.10 4294967295
21.99 -1.02 -33.40 4294967295
16.45 16.92 -32.30 4294967295
6.49 18.78 -34.72 4294967295
24.52 -4.44 31.29 4294967295
-20.96 11.95 31.91 4294967295
-22.43 -17.63 28.03 4294967295
-0.77 33.10 -22.44 4294967295
5.05 -38.93 -7.66 4294967295
8.22 -32.15 -22.33 4294967295
-26.10 25.61 -16.21 4294967295
-4.86 0.87 39.69 4294967295
39.90 -0.54 -2.83 4294967295
9.49 -16.03 -35.40 4294967295
-25.86 3.07 30.36 4294967295
24.43 15.42 27.66 4294967295
-26.13 14.79 -26.43 4294967295
18.70 4.57 35.06 4294967295
0.28 -26.23 30.19 4294967295
10.28 -26.34 -28.29 4294967295
37.21 -0.41 14.67 4294967295
16.80 20.30 -30.10 4294967295
-32.82 -9.37 -20.85 4294967295
-27.61 7.60 27.93 4294967295
32.53 16.02 -16.89 4294967295
33.30 2.49 -22.01 4294967295
-21.85 3.15 -33.35 4294967295
39.72 -1.32 -4.57 4294967295
28.75 -27.13 6.11 4294967295
28.45 28.11 0.02 4294967295
2.53 -8.12 -39.09 4294967295
-32.81 -1.39 -22.83 4294967295
-22.05 31.57 -10.82 4294967295
-18.74 -33.53 -11.15 4294967295
-0.05 28.74 -27.83 4294967295
6.72 38.02 -10.46 4294967295
19.62 -5.11 34.48 4294967295
23.12 -30.49 -11.66 4294967295
35.05 15.91 10.87 4294967295
-33.99 20.94 -2.47 4294967295
22.83 -2.38 32.76 4294967295
22.53 17.46 -28.07 4294967295
-5.89 -6.88 38.96 4294967295
34.68 -1.46 -19.87 4294967295
14.11 31.62 -20.03 4294967295
-21.99 -12.44 31.01 4294967295
14.45 6.36 36.75 4294967295
-13.85 -14.66 -34.55 4294967295
-26.83 19.24 22.59 4294967295
10.73 -3.89 -38.34 4294967295
28.11 5.59 -27.90 4294967295
4.32 19.64 -34.58 4294967295
10.76 -27.98 26.48 4294967295
7.92 37.18 -12.45 4294967295
-12.35 -37.91 3.15 4294967295
-24.91 -6.54 -30.61 4294967295
21.02 -33.65 -5.12 4294967295
-1.46 37.78 -13.05 4294967295
38.35 -0.22 11.36 4294967295
-4.35 25.87 30.20 4294967295
-38.19 -8.37 8.47 4294967295
-13.92 32.82 18.15 4294967295
-29.92 26.54 0.50 4294967295
24.15 26.84 -17.21 4294967295
13.18 -17.23 -33.61 4294967295
-5.54 13.29 37.32 4294967295
11.32 22.86 30.81 4294967295
-30.91 -20.65 -14.78 4294967295
29.09 -11.26 25.05 4294967295
15.87 19.17 -31.32 4294967295
0.54 -34.62 20.03 4294967295
16.26 -9.17 -35.38 4294967295
-23.75 -2.67 -32.07 4294967295
10.26 37.95 7.39 4294967295
28.45 -23.00 -16.17 4294967295
-33.98 -20.45 -5.22 4294967295
-36.11 -15.89 -6.58 4294967295
36.18 -7.16 -15.49 4294967295
11.26 -37.19 -9.47 4294967295
35.10 3.73 18.82 4294967295
-14.21 14.81 -34.33 4294967295
-21.03 -21.98 -25.98 4294967295
28.95 -5.06 -27.14 4294967295
1.41 39.78 3.98 4294967295
28.50 -26.97 -7.75 4294967295
7.57 33.83 19.96 4294967295
14.74 15.87 -33.63 4294967295
-26.53 -14.80 -26.03 4294967295
-7.51 -26.56 -28.95 4294967295
15.75 8.54 35.76 4294967295
15.84 19.35 31.22 4294967295
39.74 -4.30 -1.60 4294967295
33.95 20.69 4.37 4294967295
-28.67 6.38 -27.15 4294967295
-28.90 -27.45 3.36 4294967295
-31.87 18.21 -15.91 4294967295
17.58 32.32 15.69 4294967295
21.82 -7.20 32.74 4294967295
-24.15 -24.05 -20.94 4294967295
31.88 10.15 21.93 4294967295
34.11 -5.21 20.23 4294967295
14.26 37.09 4.55 4294967295
29.10 10.34 -25.42 4294967295
-39.89 -1.87 -2.25 4294967295
-7.49 -35.07 -17.73 4294967295
-12.07 36.91 -9.58 4294967295
18.72 -23.52 26.39 4294967295
-10.83 21.91 -31.67 4294967295
37.98 11.44 -5.16 4294967295
-14.01 10.45 35.98 4294967295
-24.21 31.84 0.32 4294967295
-1.49 6.61 39.42 4294967295
20.84 -33.25 -7.74 4294967295
34.32 -1.68 20.47 4294967295
-1.02 14.87 37.12 4294967295
12.33 -36.38 11.14 4294967295
-5.24 27.26 -28.80 4294967295
33.40 9.61 19.80 4294967295
-4.00 -31.47 -24.37 4294967295
11.22 15.99 -34.90 4294967295
0.57 34.21 20.73 4294967295
33.40 4.56 21.54 4294967295
3.98 -2.45 -39.73 4294967295
-37.81 3.33 12.63 4294967295
19.04 -18.50 29.92 4294967295
-22.79 21.41 -24.94 4294967295
20.52 32.98 -9.55 4294967295
-12.94 31.19 -21.43 4294967295
-31.22 15.71 -19.46 4294967295
28.39 1.25 -28.15 4294967295
3.98 -27.15 -29.11 4294967295
-3.58 37.58 -13.22 4294967295
-27.09 19.19 -22.31 4294967295
-6.61 -17.45 35.38 4294967295
-17.58 23.57 27.12 4294967295
18.18 -10.24 -34.13 4294967295
-17.90 -33.92 11.34 4294967295
-8.73 -16.99 35.14 4294967295
-24.88 31.22 -2.51 4294967295
-21.43 -33.70 -2.28 4294967295
-1.26 -36.27 -16.82 4294967295
-0.16 2.18 39.94 4294967295
-27.82 20.19 20.45 4294967295
27.74 5.06 28.37 4294967295
29.94 -8.52 -25.12 4294967295
27.24 -25.65 -14.13 4294967295
10.40 22.16 31.63 4294967295
15.29 1.65 36.92 4294967295
-15.86 -25.28 -26.63 4294967295
38.33 6.88 9.11 4294967295
-4.41 -15.07 36.79 4294967295
39.13 -2.67 7.87 4294967295
-39.63 -3.18 -4.37 4294967295
-3.47 13.23 -37.59 4294967295
-20.07 26.16 22.64 4294967295
18.55 -24.77 -25.35 4294967295
20.54 -31.52 13.60 4294967295
-9.30 -29.40 25.48 4294967295
10.17 -17.30 -34.60 4294967295
30.74 25.59 -0.46 4294967295
-9.27 29.49 25.38 4294967295
2.73 -28.90 -27.52 4294967295
-12.58 35.10 -14.47 4294967295
32.39 -22.15 -7.76 4294967295
-16.11 -17.35 32.24 4294967295
-9.25 38.76 3.45 4294967295
-5.04 -22.56 -32.64 4294967295
-38.45 3.11 -10.59 4294967295
-8.92 -19.78 -33.60 4294967295
-0.37 -36.22 16.97 4294967295
-4.34 26.07 -30.02 4294967295
31.95 -13.60 -19.85 4294967295
22.42 33.10 1.47 4294967295
-13.94 19.74 31.87 4294967295
-18.17 -27.54 22.62 4294967295
-39.49 3.60 -5.28 4294967295
-31.06 25.20 0.45 4294967295
28.91 -8.61 26.27 4294967295
33.14 -2.16 -22.30 4294967295
-6.08 21.78 -32.99 4294967295
11.56 38.28 -0.83 4294967295
-30.50 -25.21 -5.84 4294967295
19.43 -33.39 10.38 4294967295
-26.78 11.76 27.28 4294967295
-23.58 18.76 -26.31 4294967295
-7.18 -34.55 -18.83 4294967295
33.15 -19.05 11.76 4294967295
-2.65 -39.06 8.20 4294967295
25.31 30.92 -1.83 4294967295
35.22 -17.33 7.70 4294967295
33.45 13.89 -16.97 4294967295
-34.07 20.47 -4.45 4294967295
19.84 -8.57 33.66 4294967295
27.85 23.49 -16.51 4294967295
-33.76 -16.49 13.71 4294967295
22.30 -0.01 33.21 4294967295
-18.74 2.30 35.27 4294967295
4.56 -39.70 -1.73 4294967295
14.05 -34.37 14.88 4294967295
-33.72 -15.44 15.00 4294967295
-9.71 33.95 -18.79 4294967295
-23.68 -24.03 21.48 4294967295
4.30 -37.17 14.14 4294967295
22.53 -1.08 33.03 4294967295
-17.46 5.13 -35.62 4294967295
-14.85 -34.33 -14.19 4294967295
15.13 -25.41 26.93 4294967295
3.90 -24.62 -31.28 4294967295
-23.51 18.16 26.79 4294967295
-19.31 -8.43 34.00 4294967295
31.60 -9.81 22.48 4294967295
-39.73 4.52 -1.15 4294967295
-28.15 -18.82 -21.30 4294967295
-35.78 -6.09 -16.82 4294967295
38.06 12.05 2.59 4294967295
4.77 -4.35 -39.48 4294967295
37.72 -10.86 -7.69 4294967295
19.67 -29.33 -18.78 4294967295
-13.74 -31.97 19.73 4294967295
-12.59 -37.36 -6.79 4294967295
-29.16 6.12 -26.69 4294967295
-26.64 29.06 -6.77 4294967295
34.28 -10.49 17.75 4294967295
30.72 25.43 3.04 4294967295
-30.41 -20.13 16.44 4294967295
0.57 2.67 -39.91 4294967295
0.50 29.60 -26.90 4294967295
-28.80 -5.20 27.27 4294967295
-30.55 -8.37 24.42 4294967295
33.60 21.36 3.85 4294967295
14.48 -3.89 -37.08 4294967295
-3.54 -33.66 21.31 4294967295
9.61 -38.81 -1.04 4294967295
-25.86 -30.45 -2.06 4294967295
19.12 -33.68 -10.01 4294967295
29.81 -20.04 -17.60 4294967295
39.01 -0.74 -8.82 4294967295
20.65 34.06 3.65 4294967295
19.45 29.92 18.06 4294967295
-27.98 14.72 24.51 4294967295
9.52 -34.68 -17.52 4294967295
33.83 -20.00 7.44 4294967295
7.93 -25.78 29.54 4294967295
27.05 22.77 -18.71 4294967295
-25.81 -27.97 -12.30 4294967295
29.82 -7.40 25.61 4294967295
6.71 -30.65 24.82 4294967295
-27.49 -27.96 7.92 4294967295
23.82 -32.09 1.63 4294967295
-14.62 -11.22 35.50 4294967295
-27.03 19.41 -22.20 4294967295
-34.23 -1.12 -20.67 4294967295
-18.08 34.02 10.77 4294967295
20.67 -33.05 8.95 4294967295
33.30 10.13 -19.72 4294967295
-11.53 33.40 -18.74 4294967295
-24.81 5.31 30.92 4294967295
26.69 6.27 -29.12 4294967295
17.69 -3.37 -35.72 4294967295
26.98 16.48 -24.51 4294967295
35.54 18.23 -2.20 4294967295
5.60 15.25 -36.55 4294967295
-7.34 -0.24 -39.32 4294967295
37.98 -6.98 10.43 4294967295
-39.20 -6.33 -4.79 4294967295
-10.34 34.76 16.88 4294967295
-27.73 -12.74 -25.85 4294967295
26.46 27.10 -12.86 4294967295
3.04 14.23 -37.26 4294967295
-23.99 -18.37 -26.21 4294967295
26.34 24.56 -17.40 4294967295
17.98 35.10 6.69 4294967295
-22.83 -25.41 20.81 4294967295
-21.25 33.22 -6.72 4294967295
-17.12 27.41 -23.57 4294967295
-23.06 -22.71 -23.51 4294967295
35.24 6.90 -17.62 4294967295
-1.10 -39.75 -4.36 4294967295
-7.45 38.56 7.59 4294967295
-5.27 -6.96 39.04 4294967295
32.32 -16.31 17.01 4294967295
