VERSION 0.7
FIELDS x y z rgba
SIZE 4 4 4 4
TYPE F F F U
COUNT 1 1 1 1
WIDTH 1625
HEIGHT 1
VIEWPOINT 0 0 0 1 0 0 0
POINTS 1625
DATA ascii
-5.90 -39.24 34.99 4294967295
2.09 -16.11 76.55 4294967295
-25.68 24.52 21.58 4294967295
20.70 -27.67 60.15 4294967295
7.06 -31.37 16.21 4294967295
15.00 -37.08 40.39 4294967295
-19.14 33.96 48.97 4294967295
18.15 -11.03 6.11 4294967295
31.69 -13.72 60.19 4294967295
29.55 19.86 58.24 4294967295
31.57 -20.58 26.58 4294967295
6.37 16.87 75.70 4294967295
-35.36 18.59 37.93 4294967295
-19.73 18.32 69.58 4294967295
-4.86 39.42 35.26 4294967295
38.39 -9.78 34.48 4294967295
8.71 -13.65 76.58 4294967295
-37.60 -7.43 28.56 4294967295
25.58 9.77 69.16 4294967295
35.42 -18.05 44.45 4294967295
-17.77 22.50 67.89 4294967295
30.41 20.89 55.47 4294967295
-33.22 -21.32 33.51 4294967295
36.95 -9.32 27.83 4294967295
0.85 -33.86 61.28 4294967295
11.21 -36.13 27.02 4294967295
30.17 -19.56 57.52 4294967295
11.61 -37.66 46.88 4294967295
-9.17 -27.16 67.89 4294967295
-16.05 -10.68 75.05 4294967295
4.42 38.20 51.02 4294967295
-24.94 -0.81 71.27 4294967295
36.23 4.94 56.22 4294967295
25.64 -13.34 12.35 4294967295
12.59 -19.84 7.63 4294967295
-38.85 -0.99 30.53 4294967295
-7.48 14.17 3.35 4294967295
37.18 -6.34 26.67 4294967295
0.22 -40.00 39.85 4294967295
9.11 32.13 62.02 4294967295
16.94 -25.76 65.48 4294967295
-31.74 18.00 23.61 4294967295
-25.03 15.28 67.20 4294967295
13.11 -37.34 34.20 4294967295
9.99 38.11 46.93 4294967295
17.41 -6.70 75.38 4294967295
17.62 -13.55 73.25 4294967295
-30.65 20.36 24.32 4294967295
33.70 10.90 21.42 4294967295
-3.40 2.24 79.79 4294967295
-13.43 35.52 27.44 4294967295
-35.51 -17.03 47.00 4294967295
-29.63 -12.66 63.70 4294967295
38.56 -8.06 46.95 4294967295
-5.34 38.50 49.42 4294967295
38.76 4.40 48.86 4294967295
-15.07 -23.63 11.46 4294967295
-38.73 -6.15 32.10 4294967295
-33.71 11.61 58.13 4294967295
4.98 23.65 71.88 4294967295
37.63 -8.68 50.43 4294967295
2.17 -9.01 78.91 4294967295
23.83 17.67 66.83 4294967295
0.10 26.49 69.97 4294967295
-26.29 -14.03 13.31 4294967295
-1.54 -25.90 70.44 4294967295
-33.03 20.33 30.21 4294967295
21.41 -27.83 20.84 4294967295
5.42 -39.55 37.45 4294967295
2.62 -11.23 1.70 4294967295
-11.24 17.38 74.23 4294967295
-3.16 26.74 10.42 4294967295
-28.75 13.24 64.46 4294967295
-22.66 -4.83 7.39 4294967295
-29.82 14.73 62.22 4294967295
17.62 -19.27 9.70 4294967295
7.58 13.22 76.98 4294967295
18.06 -35.58 37.15 4294967295
19.49 -18.91 10.63 4294967295
33.43 7.49 60.65 4294967295
-40.00 0.55 40.08 4294967295
26.29 6.04 69.54 4294967295
-12.45 -38.00 40.97 4294967295
-34.49 -12.39 23.97 4294967295
-33.49 -2.11 18.23 4294967295
-26.12 -25.88 55.74 4294967295
27.32 25.33 25.45 4294967295
-18.73 -3.87 4.87 4294967295
-2.37 -28.41 68.06 4294967295
-3.98 -32.49 62.99 4294967295
-4.94 2.74 0.40 4294967295
33.23 15.43 56.05 4294967295
21.51 25.33 17.74 4294967295
-13.76 18.39 72.75 4294967295
0.95 -16.52 76.41 4294967295
-14.17 -15.65 6.03 4294967295
-18.41 13.02 6.96 4294967295
-33.31 -20.46 31.51 4294967295
-37.50 -1.41 26.16 4294967295
-2.41 19.25 5.02 4294967295
-17.51 28.32 17.84 4294967295
17.21 -24.32 66.69 4294967295
-8.98 -18.87 5.89 4294967295
-15.60 -27.76 64.21 4294967295
-35.36 10.99 24.88 4294967295
-25.55 -5.79 9.77 4294967295
-27.19 11.03 67.19 4294967295
-9.55 37.94 48.34 4294967295
15.50 25.77 13.63 4294967295
19.86 -0.62 74.72 4294967295
30.85 -12.06 62.42 4294967295
2.92 -34.65 20.23 4294967295
-22.56 -22.17 15.51 4294967295
-19.77 -33.22 50.26 4294967295
-15.90 -26.99 64.87 4294967295
31.97 13.12 19.85 4294967295
-8.20 28.90 13.59 4294967295
20.67 -6.95 73.54 4294967295
-28.75 -10.03 65.94 4294967295
-25.72 30.04 34.00 4294967295
4.44 17.87 4.49 4294967295
-39.85 3.29 39.14 4294967295
31.34 23.65 47.65 4294967295
-27.94 -4.16 68.32 4294967295
-10.84 -4.30 78.26 4294967295
-24.05 22.28 62.92 4294967295
31.56 -18.86 55.75 4294967295
-30.88 7.93 64.16 4294967295
-17.60 -13.40 6.68 4294967295
-35.90 8.85 55.25 4294967295
22.27 -2.15 73.16 4294967295
11.55 16.43 5.41 4294967295
-21.47 33.71 38.43 4294967295
10.34 18.13 74.12 4294967295
-2.26 21.66 73.55 4294967295
-0.12 -37.00 24.81 4294967295
29.55 7.92 65.77 4294967295
36.63 10.29 27.66 4294967295
-35.48 5.37 57.67 4294967295
-31.74 6.60 63.43 4294967295
21.75 -31.59 28.64 4294967295
35.11 -3.50 58.84 4294967295
28.66 -16.86 17.76 4294967295
3.10 -23.76 72.03 4294967295
-17.79 -10.96 5.89 4294967295
1.91 -14.85 77.09 4294967295
34.98 -14.30 53.10 4294967295
21.46 18.32 11.65 4294967295
24.34 1.64 8.30 4294967295
-38.56 8.60 33.72 4294967295
35.98 -5.78 56.48 4294967295
-22.28 -22.63 64.32 4294967295
1.76 -39.02 31.36 4294967295
19.92 12.83 7.77 4294967295
-36.58 13.85 31.63 4294967295
24.31 -27.80 24.62 4294967295
-37.80 -12.50 36.12 4294967295
-20.57 26.00 62.39 4294967295
15.55 -31.20 20.38 4294967295
-38.89 -5.24 32.24 4294967295
18.92 -12.80 7.17 4294967295
-8.06 -38.14 48.96 4294967295
-2.75 36.57 55.97 4294967295
1.66 -34.07 19.10 4294967295
32.21 10.00 18.48 4294967295
33.45 9.44 20.20 4294967295
-23.93 -31.81 36.04 4294967295
18.48 -31.26 23.23 4294967295
-8.26 -24.19 9.23 4294967295
24.85 -2.97 71.20 4294967295
-21.09 -17.33 69.24 4294967295
38.41 10.19 35.48 4294967295
35.53 5.87 57.41 4294967295
3.88 -37.49 26.60 4294967295
-9.06 37.06 27.96 4294967295
-39.73 -1.75 35.71 4294967295
-8.01 -17.55 75.04 4294967295
-15.90 -17.82 7.91 4294967295
34.39 10.33 57.62 4294967295
30.35 9.46 64.28 4294967295
21.50 33.71 38.84 4294967295
35.34 3.02 21.50 4294967295
25.36 -24.94 21.71 4294967295
31.36 -17.94 57.16 4294967295
-27.45 -29.02 38.04 4294967295
8.49 10.97 2.48 4294967295
-24.04 23.15 17.95 4294967295
-38.90 9.21 38.60 4294967295
32.92 9.28 19.26 4294967295
32.30 -23.46 42.49 4294967295
-21.28 7.90 72.94 4294967295
-22.53 -16.89 11.59 4294967295
-23.78 31.24 47.64 4294967295
-32.24 23.03 34.51 4294967295
13.71 -33.87 56.28 4294967295
34.81 14.60 26.77 4294967295
-21.60 -9.73 72.23 4294967295
-4.44 -39.70 37.88 4294967295
-26.33 7.85 10.93 4294967295
-16.27 33.80 53.90 4294967295
33.40 -22.00 39.50 4294967295
28.93 21.20 57.70 4294967295
-34.17 -19.76 46.48 4294967295
14.90 16.91 6.95 4294967295
-23.49 21.54 64.18 4294967295
35.77 -14.85 30.02 4294967295
-21.58 20.14 13.01 4294967295
7.02 39.36 41.20 4294967295
-37.98 5.24 28.59 4294967295
-9.43 -34.60 22.29 4294967295
-13.22 -37.36 45.45 4294967295
22.87 -11.95 70.56 4294967295
5.08 -38.67 31.11 4294967295
-16.85 0.22 76.28 4294967295
-37.26 10.96 49.57 4294967295
-27.59 -24.81 54.94 4294967295
24.24 -16.41 12.74 4294967295
-22.19 2.62 73.17 4294967295
39.67 -2.97 44.22 4294967295
-38.19 11.82 38.62 4294967295
-27.12 -22.83 21.47 4294967295
-21.06 -33.47 33.99 4294967295
23.08 -21.11 64.93 4294967295
-38.61 -8.42 46.16 4294967295
26.90 -20.28 61.56 4294967295
7.90 10.97 77.65 4294967295
35.65 -17.30 45.47 4294967295
-37.01 -8.15 52.79 4294967295
-38.95 -8.30 43.71 4294967295
-15.08 -28.01 15.75 4294967295
30.00 -9.04 64.86 4294967295
15.92 34.78 28.30 4294967295
-39.48 3.45 34.56 4294967295
32.79 22.89 40.95 4294967295
38.81 -1.81 30.50 4294967295
7.42 18.81 5.49 4294967295
5.19 -16.01 3.71 4294967295
30.99 -23.45 30.54 4294967295
23.84 -10.07 70.50 4294967295
30.33 -3.88 65.79 4294967295
5.42 35.77 57.07 4294967295
8.95 -38.95 38.24 4294967295
-14.54 34.59 26.13 4294967295
-32.61 -12.40 20.44 4294967295
18.80 5.87 74.82 4294967295
37.45 6.51 52.46 4294967295
20.60 -22.29 66.05 4294967295
-20.11 31.99 26.88 4294967295
7.09 24.12 8.89 4294967295
-15.39 29.17 17.36 4294967295
33.28 18.88 28.35 4294967295
10.95 33.10 59.62 4294967295
11.92 -21.62 8.53 4294967295
26.49 21.76 19.40 4294967295
-2.66 -23.06 7.43 4294967295
39.53 -5.11 43.36 4294967295
1.31 -34.75 59.77 4294967295
12.88 -8.93 76.80 4294967295
-28.69 -26.94 32.86 4294967295
-29.64 22.06 24.68 4294967295
28.03 -12.98 14.59 4294967295
-25.89 -18.82 63.99 4294967295
-14.67 7.44 3.54 4294967295
31.05 -5.50 64.61 4294967295
4.48 -1.34 79.73 4294967295
28.76 15.16 16.70 4294967295
11.07 -37.69 32.44 4294967295
-29.24 27.13 36.99 4294967295
38.01 -3.12 27.94 4294967295
-35.43 12.50 26.28 4294967295
-20.30 -18.13 10.69 4294967295
-37.81 -7.78 29.53 4294967295
-11.48 13.18 4.02 4294967295
10.53 26.43 68.11 4294967295
11.21 -38.39 39.11 4294967295
-4.86 -38.10 28.83 4294967295
23.66 -2.88 7.88 4294967295
-16.45 32.87 24.21 4294967295
15.92 1.11 76.68 4294967295
26.20 12.40 12.44 4294967295
5.54 -25.86 70.01 4294967295
-8.30 13.56 3.30 4294967295
-0.78 -2.13 79.94 4294967295
19.63 -22.32 66.77 4294967295
8.44 33.66 20.10 4294967295
-16.11 -36.41 43.82 4294967295
22.91 -9.07 71.51 4294967295
-24.67 24.09 19.72 4294967295
-4.89 32.65 17.42 4294967295
0.81 32.58 16.81 4294967295
-36.65 -13.78 31.80 4294967295
35.01 5.74 21.52 4294967295
9.01 31.34 63.17 4294967295
23.57 -32.08 43.94 4294967295
-18.42 20.87 11.27 4294967295
39.90 -2.66 40.90 4294967295
-34.03 -20.99 38.73 4294967295
9.03 35.16 56.80 4294967295
-17.16 -3.39 75.97 4294967295
6.34 18.99 5.37 4294967295
-1.85 -33.04 62.47 4294967295
-30.18 -4.09 14.07 4294967295
15.38 31.35 59.51 4294967295
-30.03 -14.06 17.63 4294967295
-24.73 -9.79 10.12 4294967295
-6.95 6.06 78.92 4294967295
-5.11 -39.62 42.05 4294967295
20.45 -30.57 55.72 4294967295
-38.02 10.23 47.09 4294967295
4.21 -1.19 79.76 4294967295
-37.15 3.98 54.30 4294967295
22.19 26.45 60.21 4294967295
14.73 16.15 6.50 4294967295
36.83 9.27 52.56 4294967295
-6.35 25.62 70.05 4294967295
-31.83 -24.19 41.29 4294967295
-36.50 -0.54 23.64 4294967295
-5.78 -30.99 64.62 4294967295
34.21 4.14 60.31 4294967295
-38.26 11.39 37.41 4294967295
-32.19 19.88 27.02 4294967295
-17.09 -32.69 24.53 4294967295
7.36 -34.40 59.05 4294967295
-18.89 35.21 41.91 4294967295
36.88 -5.85 25.65 4294967295
8.75 6.17 78.54 4294967295
-36.24 9.76 53.84 4294967295
-36.60 -15.08 34.27 4294967295
36.70 15.49 36.40 4294967295
-19.88 10.29 6.85 4294967295
29.30 -23.08 25.56 4294967295
12.20 37.93 43.57 4294967295
12.13 -38.10 39.01 4294967295
-30.09 -16.84 60.28 4294967295
25.15 -24.69 21.08 4294967295
39.39 -6.93 40.19 4294967295
4.29 0.34 0.23 4294967295
11.86 -15.08 75.10 4294967295
-1.52 -3.48 0.18 4294967295
28.07 9.17 13.02 4294967295
-39.03 6.30 33.91 4294967295
-25.90 6.02 10.12 4294967295
36.70 6.08 25.29 4294967295
-26.88 -1.88 10.43 4294967295
-6.52 21.31 6.78 4294967295
-16.06 -15.82 6.96 4294967295
-21.08 -25.85 17.92 4294967295
30.30 -4.09 65.79 4294967295
-34.41 -11.13 22.92 4294967295
14.27 35.49 51.68 4294967295
-32.28 22.36 32.37 4294967295
-3.64 26.21 10.01 4294967295
22.68 31.20 29.41 4294967295
23.31 13.90 69.38 4294967295
-19.60 -27.15 61.88 4294967295
-0.80 -27.51 10.98 4294967295
35.57 -10.59 54.92 4294967295
23.19 -31.35 48.93 4294967295
-17.68 24.60 66.12 4294967295
13.66 0.12 77.60 4294967295
35.35 18.44 36.86 4294967295
-23.14 8.35 8.46 4294967295
38.76 8.30 45.39 4294967295
-33.43 -21.90 41.76 4294967295
-13.89 -30.87 18.69 4294967295
27.75 -7.06 67.93 4294967295
16.04 36.19 34.25 4294967295
-30.77 -24.80 33.80 4294967295
-10.16 -1.95 78.64 4294967295
-26.85 29.28 44.71 4294967295
33.73 21.31 37.10 4294967295
-11.88 -37.28 48.32 4294967295
-27.84 28.70 41.16 4294967295
-14.31 36.30 31.19 4294967295
-0.91 -20.24 5.51 4294967295
-6.05 -38.49 49.07 4294967295
-10.01 -30.79 16.50 4294967295
-7.86 7.89 78.42 4294967295
-21.18 25.71 62.15 4294967295
-32.93 -2.15 62.61 4294967295
-6.52 19.65 74.22 4294967295
-1.28 8.74 79.01 4294967295
-34.90 7.01 21.75 4294967295
23.55 31.26 48.23 4294967295
-28.94 -27.25 35.50 4294967295
-4.66 -30.67 14.74 4294967295
19.62 1.82 74.81 4294967295
25.49 28.90 29.29 4294967295
36.44 16.21 43.09 4294967295
-12.71 37.66 44.45 4294967295
-20.44 -30.04 23.28 4294967295
14.59 -36.79 45.79 4294967295
-10.11 -32.05 18.31 4294967295
-30.28 25.00 32.36 4294967295
11.33 22.20 71.28 4294967295
-20.16 -0.40 74.55 4294967295
-10.50 7.69 77.82 4294967295
38.34 0.46 28.60 4294967295
14.96 -20.08 8.81 4294967295
-13.97 -31.28 19.36 4294967295
-24.46 -12.16 10.78 4294967295
11.40 36.93 50.32 4294967295
32.34 22.96 34.82 4294967295
23.74 -23.50 17.99 4294967295
13.15 36.94 47.91 4294967295
4.55 38.66 30.81 4294967295
-17.45 4.31 4.26 4294967295
-37.86 10.25 47.85 4294967295
14.87 22.23 69.74 4294967295
24.34 16.84 13.09 4294967295
23.65 13.61 10.75 4294967295
18.46 -21.69 68.09 4294967295
-21.02 -20.42 12.77 4294967295
8.99 30.39 15.59 4294967295
-4.27 -33.07 62.10 4294967295
-24.00 31.82 43.43 4294967295
-28.44 -23.08 56.07 4294967295
-7.85 -39.06 36.48 4294967295
-37.90 -11.50 34.39 4294967295
-2.21 31.64 64.37 4294967295
-17.23 32.03 56.65 4294967295
-34.32 13.89 55.14 4294967295
17.14 16.07 72.37 4294967295
-5.69 -1.39 79.57 4294967295
-29.20 20.86 57.67 4294967295
-11.62 -11.85 76.40 4294967295
34.93 -19.21 36.65 4294967295
-11.36 -35.36 25.15 4294967295
-32.54 17.69 24.89 4294967295
0.81 -1.53 79.96 4294967295
-13.41 34.17 55.89 4294967295
-22.36 -6.48 7.47 4294967295
39.36 5.85 35.93 4294967295
-21.09 -12.78 71.50 4294967295
-33.77 20.07 47.53 4294967295
-25.24 -26.60 55.99 4294967295
-3.46 -11.65 1.89 4294967295
-24.04 -13.35 10.96 4294967295
39.73 -2.46 43.95 4294967295
38.62 6.93 47.80 4294967295
-39.10 5.48 33.62 4294967295
-32.26 -21.45 30.06 4294967295
-7.43 18.45 5.30 4294967295
-17.25 18.64 9.10 4294967295
-15.30 -36.89 42.26 4294967295
22.73 -17.11 68.11 4294967295
-5.66 -37.13 26.24 4294967295
-3.33 -27.07 10.74 4294967295
-35.44 16.76 47.93 4294967295
-15.64 -21.70 69.74 4294967295
-23.01 10.62 70.94 4294967295
20.92 -26.59 61.34 4294967295
-9.24 -30.15 64.60 4294967295
28.98 -10.76 65.39 4294967295
0.12 23.71 7.78 4294967295
-12.92 -28.40 14.97 4294967295
21.58 30.18 25.06 4294967295
-37.84 7.85 50.30 4294967295
-27.84 -27.73 32.50 4294967295
19.30 34.50 33.89 4294967295
-15.60 -32.75 56.86 4294967295
-31.15 -24.97 37.44 4294967295
-22.37 33.07 42.45 4294967295
12.51 -37.63 45.23 4294967295
-6.17 11.36 77.85 4294967295
-6.85 -9.29 1.70 4294967295
-13.68 -25.07 11.99 4294967295
-4.46 -31.56 64.17 4294967295
-16.81 -34.68 50.72 4294967295
-3.63 10.24 1.50 4294967295
11.04 -34.76 56.43 4294967295
13.56 34.14 55.82 4294967295
-2.18 39.80 43.31 4294967295
-23.10 15.50 68.74 4294967295
28.32 21.30 58.56 4294967295
-21.08 6.79 6.69 4294967295
-36.95 13.42 47.39 4294967295
16.25 28.30 16.88 4294967295
13.90 -30.48 61.85 4294967295
-4.33 39.76 39.62 4294967295
9.70 38.81 39.89 4294967295
-0.56 -32.52 63.28 4294967295
1.78 -8.20 79.11 4294967295
-12.01 -38.02 36.85 4294967295
-0.16 -30.65 14.30 4294967295
-18.21 2.67 4.49 4294967295
36.74 13.20 48.73 4294967295
-19.29 -8.81 73.91 4294967295
-25.25 27.96 53.44 4294967295
-28.67 17.98 18.67 4294967295
-14.98 -36.98 42.85 4294967295
35.82 -14.00 29.00 4294967295
22.38 33.14 39.31 4294967295
-19.60 31.43 24.91 4294967295
-10.95 25.39 11.10 4294967295
-32.05 10.90 18.69 4294967295
16.61 33.00 55.34 4294967295
-24.11 17.51 13.32 4294967295
6.64 27.67 11.89 4294967295
8.56 13.15 3.21 4294967295
12.90 -5.69 77.43 4294967295
-34.93 -9.78 23.14 4294967295
8.51 -19.06 74.12 4294967295
7.19 -39.17 43.69 4294967295
-27.54 22.22 21.34 4294967295
-3.82 21.32 6.37 4294967295
15.68 -19.48 8.78 4294967295
-30.17 20.92 55.87 4294967295
33.72 -21.37 37.50 4294967295
-23.46 -31.29 48.40 4294967295
-15.68 -32.01 58.15 4294967295
-34.49 -2.13 60.14 4294967295
-11.09 -34.01 57.90 4294967295
25.97 14.14 13.06 4294967295
36.47 -13.93 48.71 4294967295
-16.80 19.68 70.50 4294967295
20.49 34.06 44.52 4294967295
33.54 21.76 41.22 4294967295
-20.92 13.20 71.44 4294967295
-30.14 -0.89 13.72 4294967295
30.88 -24.79 45.66 4294967295
15.18 36.94 42.24 4294967295
-34.18 -20.69 41.96 4294967295
-7.58 39.01 35.41 4294967295
2.29 -37.64 26.65 4294967295
-36.32 -16.74 39.30 4294967295
33.95 -5.75 60.36 4294967295
-24.69 -12.45 11.10 4294967295
-30.84 1.88 65.40 4294967295
1.59 31.46 15.35 4294967295
2.19 -26.21 9.87 4294967295
6.06 -38.76 32.18 4294967295
-7.85 36.91 53.25 4294967295
-21.15 -2.02 73.89 4294967295
-7.75 19.62 6.02 4294967295
-20.16 5.74 5.93 4294967295
-7.30 39.30 41.51 4294967295
-16.79 31.23 21.49 4294967295
-17.76 -24.00 66.62 4294967295
-14.74 -29.63 62.47 4294967295
35.85 15.51 31.37 4294967295
-18.88 33.33 51.53 4294967295
5.82 34.25 59.82 4294967295
17.27 -9.80 5.28 4294967295
19.24 8.27 5.92 4294967295
-29.62 0.21 13.11 4294967295
35.14 9.55 56.55 4294967295
16.73 -31.27 58.50 4294967295
-14.95 -9.07 4.03 4294967295
16.41 36.46 41.25 4294967295
-32.65 -6.55 62.15 4294967295
-0.19 18.44 4.50 4294967295
27.94 -20.87 20.41 4294967295
8.88 27.78 67.37 4294967295
-35.38 -4.74 58.05 4294967295
39.79 -2.11 36.53 4294967295
39.10 -7.26 35.68 4294967295
24.40 15.12 12.14 4294967295
31.09 -21.74 27.31 4294967295
-2.96 27.64 68.76 4294967295
-27.85 23.41 23.37 4294967295
24.63 4.74 71.16 4294967295
-24.51 -10.25 10.10 4294967295
-31.99 23.72 36.28 4294967295
17.38 -9.98 5.38 4294967295
-2.51 28.92 12.48 4294967295
-7.00 -39.06 34.97 4294967295
0.00 23.54 7.66 4294967295
1.44 -16.63 76.35 4294967295
-38.32 11.46 40.30 4294967295
26.09 -21.28 18.40 4294967295
-20.40 -34.22 43.64 4294967295
38.00 -12.37 41.62 4294967295
3.16 19.40 74.84 4294967295
0.89 35.91 57.60 4294967295
34.54 -0.01 19.83 4294967295
38.43 4.52 50.15 4294967295
-5.92 30.73 15.09 4294967295
-13.22 -26.58 13.19 4294967295
0.19 -34.22 60.71 4294967295
26.48 -28.57 49.10 4294967295
-0.66 13.41 77.68 4294967295
8.16 -4.46 1.10 4294967295
15.38 31.80 58.78 4294967295
-11.65 -34.23 22.89 4294967295
9.20 -33.95 20.95 4294967295
-26.46 -28.90 31.94 4294967295
26.95 -25.70 54.59 4294967295
25.49 14.57 12.83 4294967295
36.53 -6.57 25.09 4294967295
25.59 -8.46 69.56 4294967295
23.98 26.95 22.71 4294967295
7.69 -38.98 35.36 4294967295
4.86 -1.39 79.68 4294967295
4.17 21.96 6.83 4294967295
-1.22 -25.52 70.78 4294967295
15.54 -35.84 31.40 4294967295
15.35 33.44 24.31 4294967295
-25.82 -30.40 37.01 4294967295
4.99 39.02 47.23 4294967295
0.61 32.60 16.83 4294967295
-37.00 3.13 25.12 4294967295
-4.74 -33.18 18.17 4294967295
15.41 13.24 74.45 4294967295
-2.47 8.32 79.05 4294967295
-1.35 4.65 79.71 4294967295
17.70 23.31 12.73 4294967295
32.16 13.86 20.67 4294967295
35.00 -13.94 26.56 4294967295
17.84 -35.15 46.80 4294967295
-22.41 -32.92 43.71 4294967295
-33.97 21.11 40.30 4294967295
-35.66 -6.35 56.97 4294967295
4.40 -27.59 11.38 4294967295
-26.31 -14.01 66.67 4294967295
-30.75 25.52 41.81 4294967295
7.99 -37.18 52.41 4294967295
-6.86 38.65 32.29 4294967295
-23.15 -32.15 34.48 4294967295
2.22 -39.86 42.51 4294967295
33.92 6.60 60.14 4294967295
-9.30 -37.81 49.15 4294967295
-12.53 37.05 48.40 4294967295
1.14 -35.58 58.25 4294967295
0.25 25.12 71.13 4294967295
-0.12 -36.26 23.11 4294967295
31.99 22.42 31.41 4294967295
17.39 16.12 7.78 4294967295
37.23 -0.57 54.60 4294967295
-14.66 -32.53 58.08 4294967295
-28.91 -27.57 42.05 4294967295
13.27 -0.55 2.27 4294967295
-17.81 28.56 18.39 4294967295
-33.94 -21.06 42.24 4294967295
-11.38 -36.82 50.73 4294967295
5.69 28.97 66.99 4294967295
31.35 16.84 21.74 4294967295
-3.13 39.77 42.86 4294967295
37.65 4.08 52.88 4294967295
32.31 11.45 60.61 4294967295
-35.14 15.25 51.51 4294967295
15.90 26.10 65.81 4294967295
31.42 -16.61 58.36 4294967295
-39.96 -1.81 39.97 4294967295
-38.39 11.15 38.78 4294967295
-1.17 -13.63 2.41 4294967295
29.19 -9.74 14.44 4294967295
31.41 -21.38 52.50 4294967295
2.60 -36.24 23.28 4294967295
-20.50 34.08 35.69 4294967295
-0.51 -28.82 67.73 4294967295
39.06 -8.55 41.24 4294967295
-11.13 -13.52 75.96 4294967295
-11.35 36.87 50.58 4294967295
-13.44 -19.43 7.72 4294967295
38.54 -6.92 31.82 4294967295
3.39 -7.04 79.23 4294967295
-30.46 17.79 21.14 4294967295
19.94 14.49 8.49 4294967295
-2.78 -39.60 44.94 4294967295
-10.77 19.15 73.42 4294967295
3.49 4.18 0.37 4294967295
28.47 27.35 46.46 4294967295
-31.06 6.37 64.38 4294967295
-16.92 26.60 64.62 4294967295
-27.64 -0.82 68.90 4294967295
23.99 -26.52 57.92 4294967295
14.92 -24.90 12.48 4294967295
-28.76 -27.54 43.80 4294967295
10.40 34.40 57.57 4294967295
9.69 -38.81 40.27 4294967295
-4.91 -18.79 5.03 4294967295
11.11 23.34 9.47 4294967295
5.41 26.14 69.79 4294967295
18.07 -35.45 35.91 4294967295
8.51 25.87 10.70 4294967295
1.67 -30.55 14.24 4294967295
27.28 -20.87 19.50 4294967295
-32.21 5.63 16.96 4294967295
22.81 -32.86 40.06 4294967295
32.62 -5.44 17.50 4294967295
17.86 35.68 42.84 4294967295
26.69 16.88 64.55 4294967295
-36.41 10.97 52.42 4294967295
-25.19 -6.30 70.43 4294967295
7.74 -25.36 10.05 4294967295
-14.69 -12.89 5.10 4294967295
-31.70 15.19 59.09 4294967295
20.06 29.00 58.88 4294967295
24.30 23.48 18.59 4294967295
-6.68 37.81 28.77 4294967295
-25.38 -6.97 9.88 4294967295
10.35 -30.58 63.62 4294967295
-25.64 30.69 40.89 4294967295
-32.08 -23.89 40.42 4294967295
14.24 -5.30 77.00 4294967295
-20.94 25.96 17.93 4294967295
12.24 23.53 69.94 4294967295
-32.47 10.49 19.13 4294967295
31.89 -23.27 46.45 4294967295
23.19 -32.20 45.01 4294967295
-23.27 -10.35 70.84 4294967295
36.96 -5.18 25.62 4294967295
10.96 -33.80 21.63 4294967295
-36.03 -14.27 30.09 4294967295
-11.45 38.04 44.68 4294967295
34.06 13.92 24.32 4294967295
1.22 35.60 21.80 4294967295
25.87 -12.50 12.17 4294967295
-25.79 27.35 53.67 4294967295
-1.92 0.02 0.05 4294967295
-3.10 -15.48 3.25 4294967295
-28.35 -25.91 28.83 4294967295
-20.70 -18.50 11.20 4294967295
16.11 34.33 27.27 4294967295
21.46 -33.75 39.29 4294967295
-13.79 -9.82 76.24 4294967295
16.77 -36.28 38.35 4294967295
18.96 -5.44 5.20 4294967295
9.23 -1.03 78.91 4294967295
-32.26 -2.85 63.48 4294967295
1.85 39.74 44.16 4294967295
-34.46 10.86 57.16 4294967295
-23.21 28.61 24.41 4294967295
20.29 -10.62 72.79 4294967295
-8.51 -11.46 77.37 4294967295
39.33 -7.01 38.06 4294967295
-24.36 -24.85 59.73 4294967295
-15.68 -30.99 59.84 4294967295
25.20 20.64 16.79 4294967295
-27.80 9.32 12.80 4294967295
-26.34 -17.74 15.68 4294967295
-32.66 7.42 18.14 4294967295
-28.31 23.65 24.53 4294967295
-8.03 16.02 75.76 4294967295
11.86 -19.06 6.89 4294967295
33.71 11.01 21.50 4294967295
-37.43 13.62 43.65 4294967295
-2.70 10.28 1.44 4294967295
38.17 7.37 30.58 4294967295
-17.58 35.65 35.51 4294967295
-30.65 24.72 32.97 4294967295
-21.48 31.75 51.44 4294967295
-12.36 37.49 46.45 4294967295
13.79 14.54 5.38 4294967295
-6.80 36.39 24.85 4294967295
-35.87 -12.49 52.53 4294967295
37.11 -6.86 53.25 4294967295
-26.86 -15.57 65.22 4294967295
36.84 -12.43 49.41 4294967295
-34.16 -20.13 45.28 4294967295
-9.16 29.72 65.15 4294967295
36.13 -17.11 41.32 4294967295
-2.95 2.50 0.19 4294967295
-7.91 8.70 78.23 4294967295
10.28 -37.74 48.38 4294967295
28.98 21.37 57.43 4294967295
37.25 11.91 31.62 4294967295
-31.97 16.36 57.62 4294967295
34.41 -20.40 40.29 4294967295
38.13 8.11 48.95 4294967295
30.41 -12.00 63.05 4294967295
-18.67 -29.49 59.54 4294967295
-8.08 23.73 8.83 4294967295
-11.75 19.64 7.19 4294967295
13.08 -14.87 74.75 4294967295
-0.77 -39.80 36.04 4294967295
-1.59 26.86 10.40 4294967295
24.95 11.06 10.76 4294967295
-37.11 -13.88 34.49 4294967295
-37.29 6.53 52.92 4294967295
-2.39 -36.28 56.66 4294967295
-33.18 4.22 61.94 4294967295
-3.87 24.48 71.40 4294967295
-24.53 16.06 67.21 4294967295
-12.39 -27.72 13.97 4294967295
-16.85 -11.80 74.30 4294967295
15.39 26.89 65.30 4294967295
-8.93 35.76 55.55 4294967295
23.00 28.69 55.75 4294967295
-1.31 10.37 1.39 4294967295
11.94 8.52 2.79 4294967295
26.88 -24.98 24.09 4294967295
26.26 -12.31 67.55 4294967295
6.01 30.15 65.59 4294967295
30.08 -16.05 19.08 4294967295
15.80 -29.98 18.75 4294967295
31.64 -24.47 40.45 4294967295
12.12 21.32 71.60 4294967295
-35.93 -14.30 29.77 4294967295
-21.64 -26.89 19.78 4294967295
-17.16 31.01 21.45 4294967295
7.25 -27.89 12.26 4294967295
17.07 -35.71 45.76 4294967295
-12.68 -11.93 76.01 4294967295
-14.33 31.04 60.77 4294967295
-6.55 20.89 6.53 4294967295
2.57 -38.85 49.17 4294967295
-25.57 -16.26 13.89 4294967295
-6.46 27.35 68.47 4294967295
-6.07 -21.83 7.04 4294967295
-34.84 -10.81 56.41 4294967295
-25.35 25.36 22.27 4294967295
-20.30 -1.29 74.44 4294967295
-4.96 -31.88 16.35 4294967295
-19.03 -9.49 6.12 4294967295
-28.65 27.88 38.73 4294967295
-13.21 -8.33 3.17 4294967295
-10.50 -22.78 8.84 4294967295
-8.50 -28.98 66.23 4294967295
-16.31 -8.04 75.63 4294967295
31.54 24.37 36.59 4294967295
17.94 -6.77 4.90 4294967295
-20.16 34.35 43.67 4294967295
-37.63 5.46 27.60 4294967295
31.12 11.14 17.48 4294967295
19.56 31.37 24.73 4294967295
5.58 24.26 8.69 4294967295
-33.54 7.87 19.68 4294967295
14.17 -24.32 11.57 4294967295
-5.22 -38.04 51.22 4294967295
27.86 -19.10 61.43 4294967295
-14.17 26.71 13.81 4294967295
-27.57 14.92 64.84 4294967295
6.84 38.64 32.26 4294967295
28.22 20.69 20.62 4294967295
35.12 -14.41 27.39 4294967295
-30.25 -21.96 54.24 4294967295
7.84 -33.62 60.21 4294967295
-36.75 -5.95 25.37 4294967295
-21.92 29.16 23.60 4294967295
1.05 6.27 79.49 4294967295
-31.47 -11.64 18.23 4294967295
-30.59 25.28 34.97 4294967295
21.32 -3.72 73.64 4294967295
-3.53 23.78 71.97 4294967295
-35.33 -15.25 29.07 4294967295
-37.96 5.80 51.21 4294967295
12.47 36.69 49.92 4294967295
-31.71 19.80 54.23 4294967295
0.84 1.17 0.03 4294967295
28.58 25.26 27.95 4294967295
-9.83 -28.58 13.80 4294967295
-6.48 -33.69 19.43 4294967295
-32.87 11.35 59.77 4294967295
24.12 -2.74 8.21 4294967295
39.07 -5.52 33.46 4294967295
-6.11 -34.23 20.23 4294967295
0.05 39.51 46.26 4294967295
33.18 -3.11 62.12 4294967295
36.70 -8.04 53.72 4294967295
-26.60 9.20 11.58 4294967295
23.50 29.38 53.59 4294967295
17.72 -27.45 16.93 4294967295
16.60 27.47 63.87 4294967295
2.05 -1.76 79.91 4294967295
5.89 -39.10 46.06 4294967295
36.30 -15.87 34.46 4294967295
8.17 -38.86 44.81 4294967295
3.56 -24.94 8.93 4294967295
36.71 -4.16 24.67 4294967295
-15.34 -21.05 9.64 4294967295
31.65 -9.66 62.47 4294967295
20.61 31.79 27.18 4294967295
-31.51 23.40 32.28 4294967295
-25.72 24.14 21.13 4294967295
-5.01 39.23 45.98 4294967295
-30.22 5.78 14.44 4294967295
36.01 -9.62 54.52 4294967295
-32.95 21.30 32.19 4294967295
17.29 -12.32 73.90 4294967295
26.50 -14.00 66.49 4294967295
-2.39 -39.63 44.89 4294967295
-28.59 24.95 27.36 4294967295
-27.83 27.64 47.86 4294967295
-35.73 -14.45 29.28 4294967295
-33.06 22.52 39.92 4294967295
28.80 -16.76 62.13 4294967295
2.40 35.44 58.38 4294967295
-26.31 -29.53 45.99 4294967295
-1.51 -39.97 39.64 4294967295
-36.11 -12.68 28.37 4294967295
-8.56 0.53 79.07 4294967295
-6.81 3.86 79.23 4294967295
28.53 -27.13 47.08 4294967295
-18.09 5.47 4.74 4294967295
29.61 19.02 59.02 4294967295
-19.51 34.37 46.16 4294967295
-26.00 4.40 70.07 4294967295
23.75 26.88 57.71 4294967295
0.42 27.41 10.87 4294967295
10.14 17.64 74.44 4294967295
-39.50 -2.78 34.33 4294967295
32.55 9.79 61.08 4294967295
-7.70 -33.05 61.17 4294967295
23.49 -0.52 72.37 4294967295
-23.32 -30.82 29.71 4294967295
-3.71 37.95 52.10 4294967295
-16.68 -24.74 66.64 4294967295
-25.86 -30.19 35.56 4294967295
13.67 20.69 71.39 4294967295
-6.84 14.81 3.48 4294967295
13.40 -25.12 11.91 4294967295
26.98 -15.01 14.57 4294967295
10.15 13.68 76.19 4294967295
-28.59 1.82 12.09 4294967295
16.98 -10.40 74.69 4294967295
4.58 -13.11 2.49 4294967295
4.74 39.52 43.99 4294967295
-17.31 -29.52 60.71 4294967295
24.46 23.09 18.35 4294967295
-0.93 38.03 27.64 4294967295
-0.81 -21.77 6.46 4294967295
9.36 -36.39 53.72 4294967295
-29.33 11.01 64.86 4294967295
23.01 10.68 9.07 4294967295
12.93 -15.24 5.35 4294967295
17.05 25.19 65.97 4294967295
37.10 13.45 33.49 4294967295
-32.73 12.79 20.89 4294967295
10.76 11.56 76.75 4294967295
-28.75 5.26 12.69 4294967295
32.17 23.50 36.42 4294967295
27.92 14.80 15.48 4294967295
28.38 -13.04 64.99 4294967295
30.46 19.41 22.82 4294967295
-16.91 -33.66 26.54 4294967295
-0.10 -26.40 9.95 4294967295
-7.93 -39.20 40.47 4294967295
-35.19 14.60 27.82 4294967295
-3.27 28.02 11.64 4294967295
-27.66 -23.37 23.00 4294967295
16.03 -36.62 38.61 4294967295
2.13 -9.12 78.89 4294967295
-34.67 -2.25 20.17 4294967295
-26.48 -16.53 65.01 4294967295
-33.89 0.29 18.75 4294967295
-15.77 36.71 37.96 4294967295
-39.46 -2.49 46.06 4294967295
-1.56 27.31 69.18 4294967295
-22.48 17.66 12.02 4294967295
32.52 16.40 23.46 4294967295
18.56 34.97 45.71 4294967295
24.70 -11.25 10.61 4294967295
5.36 -30.79 15.04 4294967295
18.55 9.83 74.05 4294967295
-6.72 -10.70 77.95 4294967295
17.42 3.97 75.79 4294967295
-1.57 -39.30 47.31 4294967295
-19.80 -31.40 54.91 4294967295
27.88 17.77 17.49 4294967295
-28.75 -11.67 14.75 4294967295
-10.52 -37.91 32.78 4294967295
34.89 12.57 54.99 4294967295
2.13 12.95 77.78 4294967295
9.72 1.06 1.21 4294967295
-1.60 -38.74 30.15 4294967295
29.36 -19.40 20.98 4294967295
34.98 -15.91 51.10 4294967295
13.72 34.74 25.68 4294967295
-20.09 32.99 29.59 4294967295
-29.95 -26.09 44.73 4294967295
20.01 4.15 5.62 4294967295
-28.45 14.92 63.83 4294967295
7.91 -36.36 54.69 4294967295
-24.33 -31.66 37.60 4294967295
-18.94 -27.06 62.56 4294967295
8.14 -4.85 1.14 4294967295
31.26 12.26 18.27 4294967295
2.55 2.49 79.84 4294967295
-33.74 10.06 58.99 4294967295
39.65 0.66 34.74 4294967295
25.86 25.49 56.78 4294967295
-39.40 6.32 37.19 4294967295
26.10 30.11 43.49 4294967295
15.65 -26.58 65.47 4294967295
-23.35 27.04 22.00 4294967295
-26.84 27.17 51.88 4294967295
20.24 16.44 9.67 4294967295
-3.65 38.16 28.59 4294967295
-11.09 -36.45 52.19 4294967295
-25.12 -30.70 45.17 4294967295
-39.33 1.61 32.91 4294967295
-15.09 14.99 73.88 4294967295
-33.31 -16.57 54.70 4294967295
-20.39 -30.32 56.28 4294967295
-31.32 -5.49 64.27 4294967295
6.86 -5.92 78.96 4294967295
-20.22 -16.63 70.25 4294967295
1.88 38.32 28.67 4294967295
32.74 21.99 46.70 4294967295
-34.29 20.37 43.02 4294967295
34.44 -0.33 19.66 4294967295
7.91 -18.23 5.29 4294967295
21.64 -8.42 7.43 4294967295
2.06 -31.48 64.60 4294967295
10.58 23.44 70.64 4294967295
-27.11 28.67 33.43 4294967295
-2.72 -38.41 29.17 4294967295
-30.48 9.85 63.96 4294967295
39.61 -3.06 35.35 4294967295
-37.28 -14.14 43.20 4294967295
-31.32 -17.23 57.95 4294967295
-34.13 -19.89 46.30 4294967295
-1.58 4.32 79.73 4294967295
17.23 -35.84 35.72 4294967295
-33.13 8.62 60.70 4294967295
-23.75 6.82 71.45 4294967295
36.31 -2.22 23.36 4294967295
38.47 4.13 50.15 4294967295
-17.49 7.54 75.17 4294967295
36.72 4.92 55.08 4294967295
-27.10 -29.09 44.42 4294967295
7.30 39.15 36.22 4294967295
-15.27 -30.90 60.30 4294967295
-5.08 13.29 77.38 4294967295
-35.71 15.49 30.80 4294967295
1.43 38.13 51.99 4294967295
38.88 -1.94 49.19 4294967295
19.16 12.94 7.36 4294967295
33.05 -14.31 22.59 4294967295
-37.94 12.68 40.25 4294967295
37.01 -14.79 36.62 4294967295
-19.01 28.79 19.75 4294967295
33.67 12.20 57.81 4294967295
-13.25 37.56 43.68 4294967295
0.75 -33.18 62.33 4294967295
-28.00 -6.78 12.25 4294967295
21.15 -9.69 7.46 4294967295
3.45 0.36 0.15 4294967295
-5.42 33.54 61.11 4294967295
39.09 1.30 48.36 4294967295
35.53 8.12 56.47 4294967295
-18.94 -21.89 12.39 4294967295
-18.72 34.15 49.14 4294967295
38.44 3.38 29.46 4294967295
13.53 11.69 75.78 4294967295
-36.22 -8.07 54.95 4294967295
-13.36 -12.61 75.53 4294967295
33.01 21.00 48.31 4294967295
36.60 16.07 38.54 4294967295
-13.28 12.64 4.45 4294967295
14.98 27.14 65.28 4294967295
6.83 32.09 17.11 4294967295
33.10 8.94 19.40 4294967295
-20.19 -5.17 74.14 4294967295
30.39 -13.41 17.72 4294967295
39.04 -2.77 48.28 4294967295
14.05 8.78 3.59 4294967295
-21.48 -30.58 25.75 4294967295
38.87 -6.32 47.03 4294967295
2.39 -39.29 47.11 4294967295
-37.22 -14.48 37.78 4294967295
37.64 13.53 39.84 4294967295
-14.43 30.11 17.98 4294967295
31.48 -10.78 17.80 4294967295
8.62 -13.52 76.65 4294967295
2.71 12.69 2.16 4294967295
-10.90 7.03 2.16 4294967295
-13.79 -31.03 18.86 4294967295
-9.39 -35.40 23.92 4294967295
-26.48 24.85 23.23 4294967295
5.78 12.10 77.69 4294967295
-25.40 -29.06 50.51 4294967295
-3.40 -26.57 10.29 4294967295
10.71 23.56 70.50 4294967295
-19.67 -30.37 57.05 4294967295
18.88 -13.78 72.46 4294967295
26.92 7.93 11.49 4294967295
-30.73 -24.84 46.21 4294967295
7.65 -38.96 35.11 4294967295
5.94 31.80 63.53 4294967295
-11.52 0.11 1.69 4294967295
-26.55 26.56 26.24 4294967295
31.85 19.07 25.10 4294967295
-31.93 5.42 16.53 4294967295
-31.38 4.49 15.61 4294967295
12.18 31.54 18.62 4294967295
7.78 7.05 78.60 4294967295
-19.55 33.01 51.33 4294967295
-28.04 -9.67 13.17 4294967295
-14.92 -29.75 62.19 4294967295
7.65 39.09 36.32 4294967295
-14.03 30.69 18.52 4294967295
-8.16 -35.99 55.43 4294967295
3.56 -29.33 13.03 4294967295
22.60 -29.96 26.16 4294967295
1.97 0.28 0.05 4294967295
-6.87 -39.35 42.04 4294967295
11.64 -18.44 73.53 4294967295
31.23 -21.43 27.13 4294967295
17.91 -4.28 75.51 4294967295
-16.75 21.78 69.07 4294967295
39.58 3.07 44.86 4294967295
6.71 22.43 72.43 4294967295
32.34 -5.89 17.21 4294967295
-5.50 -1.83 79.58 4294967295
37.39 -13.87 43.18 4294967295
19.60 32.58 27.58 4294967295
-22.99 26.88 58.68 4294967295
-5.80 -17.31 75.59 4294967295
39.64 -0.79 45.33 4294967295
-39.30 -0.97 32.60 4294967295
23.29 -27.76 23.06 4294967295
-26.04 -29.54 32.96 4294967295
-36.58 6.04 24.98 4294967295
-29.98 6.79 65.59 4294967295
12.46 -17.49 6.25 4294967295
-36.26 6.22 24.29 4294967295
8.17 18.49 74.52 4294967295
-29.09 -5.15 66.97 4294967295
26.97 22.68 58.93 4294967295
38.11 -9.02 48.13 4294967295
-11.90 35.60 26.19 4294967295
-11.41 9.45 2.84 4294967295
24.67 -11.50 10.69 4294967295
23.76 -30.27 50.90 4294967295
24.44 -8.99 70.36 4294967295
-24.08 -28.48 54.46 4294967295
4.55 37.23 53.90 4294967295
1.26 21.55 6.33 4294967295
-39.01 -2.47 31.50 4294967295
26.77 7.63 11.28 4294967295
11.86 -19.75 72.70 4294967295
37.87 -12.75 38.08 4294967295
24.58 -21.23 63.35 4294967295
7.46 6.85 1.31 4294967295
-5.11 -17.34 75.68 4294967295
-37.24 -14.08 43.90 4294967295
-15.37 11.08 4.77 4294967295
-20.29 -32.09 52.59 4294967295
-14.04 -16.08 73.83 4294967295
-12.30 -30.50 62.77 4294967295
-12.51 -22.87 70.34 4294967295
-22.48 -32.84 35.98 4294967295
39.48 2.42 34.05 4294967295
-5.89 -23.30 8.02 4294967295
-20.59 -7.29 73.51 4294967295
-3.27 -22.42 7.04 4294967295
-13.61 -32.61 21.25 4294967295
-38.91 4.99 32.19 4294967295
11.19 -9.02 77.33 4294967295
-32.19 -21.13 50.83 4294967295
-39.03 -1.39 31.36 4294967295
14.16 20.97 9.02 4294967295
-7.98 -39.07 36.88 4294967295
-39.36 -5.06 34.98 4294967295
-11.76 -2.41 78.16 4294967295
-22.38 32.50 33.43 4294967295
28.10 4.49 68.11 4294967295
32.05 -15.37 58.35 4294967295
30.65 -25.52 43.03 4294967295
-33.87 17.62 51.95 4294967295
-32.53 -13.41 20.97 4294967295
-38.30 -11.54 39.56 4294967295
26.81 13.35 66.51 4294967295
-32.00 -19.73 53.68 4294967295
-22.35 16.92 11.46 4294967295
-24.21 -15.70 12.30 4294967295
21.25 -33.70 43.61 4294967295
-10.79 -36.42 52.54 4294967295
-7.53 16.48 4.34 4294967295
-17.25 -34.87 30.70 4294967295
0.97 -39.49 33.71 4294967295
-23.25 20.34 65.41 4294967295
-15.69 36.73 42.23 4294967295
-2.98 33.91 18.99 4294967295
-19.54 4.72 74.58 4294967295
38.73 10.00 40.46 4294967295
26.13 -9.23 68.84 4294967295
12.83 -34.59 24.54 4294967295
-15.83 9.50 75.48 4294967295
-2.95 -39.59 44.87 4294967295
-30.21 21.18 55.45 4294967295
-7.29 38.38 48.61 4294967295
8.71 -22.77 71.71 4294967295
-2.51 26.89 10.49 4294967295
-21.09 33.04 32.05 4294967295
-16.69 22.70 68.39 4294967295
-5.48 -39.21 34.31 4294967295
16.97 -6.81 75.58 4294967295
-8.65 -29.03 66.12 4294967295
21.56 9.51 72.32 4294967295
-3.24 -38.99 31.66 4294967295
30.49 2.89 14.27 4294967295
-20.88 3.25 6.04 4294967295
-6.01 -36.06 23.76 4294967295
25.21 -8.47 69.88 4294967295
7.18 -32.47 62.23 4294967295
-18.13 -19.71 10.29 4294967295
-35.29 18.46 43.67 4294967295
-15.33 36.58 45.17 4294967295
-32.43 -9.90 18.78 4294967295
-21.13 33.95 39.08 4294967295
-39.62 -2.16 45.05 4294967295
36.22 16.31 44.67 4294967295
2.05 37.59 26.49 4294967295
-13.35 20.81 8.55 4294967295
20.73 33.34 32.32 4294967295
26.70 2.89 69.65 4294967295
-5.40 30.01 14.11 4294967295
-3.51 35.64 57.82 4294967295
-7.42 9.69 78.09 4294967295
-12.40 29.17 64.40 4294967295
6.53 28.36 67.44 4294967295
-28.30 22.83 23.33 4294967295
14.87 -4.04 76.91 4294967295
-20.62 33.62 33.34 4294967295
-29.05 0.13 12.50 4294967295
39.62 -5.49 40.27 4294967295
-14.14 -26.64 13.72 4294967295
-15.47 -34.96 51.75 4294967295
4.93 37.20 26.15 4294967295
-35.21 7.95 57.24 4294967295
33.76 -1.02 18.57 4294967295
-20.92 -9.56 72.73 4294967295
9.64 -11.53 77.07 4294967295
20.64 1.63 74.22 4294967295
18.34 20.71 68.89 4294967295
-32.84 11.50 59.72 4294967295
-23.78 30.92 48.84 4294967295
-20.02 5.03 74.26 4294967295
-13.44 8.92 76.60 4294967295
-28.58 14.83 63.73 4294967295
-15.33 -12.35 5.18 4294967295
26.56 -14.05 13.59 4294967295
-27.48 -5.81 11.52 4294967295
-3.68 39.83 40.27 4294967295
-35.17 -13.01 26.08 4294967295
-2.08 38.08 52.07 4294967295
-39.65 4.69 42.43 4294967295
11.81 35.21 25.14 4294967295
-6.57 30.38 65.18 4294967295
-31.21 -3.01 64.84 4294967295
24.29 -22.63 62.31 4294967295
-11.23 4.68 1.90 4294967295
-28.20 21.91 58.02 4294967295
27.56 -4.55 11.37 4294967295
-4.16 35.23 58.48 4294967295
35.92 17.59 40.72 4294967295
29.01 -23.30 54.68 4294967295
13.63 31.66 60.29 4294967295
37.82 8.18 29.87 4294967295
8.84 38.82 36.18 4294967295
-9.84 8.56 77.82 4294967295
12.83 -35.79 52.44 4294967295
19.52 -34.32 33.59 4294967295
-18.06 35.68 39.20 4294967295
-13.23 -8.08 3.13 4294967295
-27.24 -26.97 51.44 4294967295
25.86 -29.32 48.47 4294967295
26.24 -1.92 70.13 4294967295
-14.98 7.32 76.36 4294967295
-29.26 -10.98 64.97 4294967295
-28.69 -2.84 12.27 4294967295
3.61 39.75 37.36 4294967295
34.28 -20.00 45.02 4294967295
-5.66 -30.40 14.62 4294967295
17.21 18.51 71.00 4294967295
-38.81 8.18 45.16 4294967295
27.48 18.08 62.76 4294967295
15.70 -12.25 74.69 4294967295
10.20 10.44 77.24 4294967295
-22.40 -27.40 58.65 4294967295
-39.58 5.23 37.58 4294967295
6.81 3.77 79.24 4294967295
30.12 -12.06 16.60 4294967295
17.18 -33.38 26.20 4294967295
6.86 -31.43 63.78 4294967295
-23.45 30.45 51.10 4294967295
8.48 38.56 46.39 4294967295
33.32 2.34 62.00 4294967295
-26.07 2.56 70.23 4294967295
-1.15 -7.02 79.36 4294967295
-25.45 -12.39 68.26 4294967295
-34.37 -14.53 25.59 4294967295
-21.94 -7.15 72.67 4294967295
35.53 -13.57 52.38 4294967295
-5.28 17.15 4.25 4294967295
1.76 -3.14 79.84 4294967295
37.13 -6.56 53.36 4294967295
-30.92 -8.25 63.99 4294967295
-27.41 23.74 56.88 4294967295
16.93 9.40 5.00 4294967295
-14.57 -36.98 44.53 4294967295
-21.16 -7.93 6.99 4294967295
-31.54 18.48 56.25 4294967295
35.15 6.52 22.05 4294967295
-27.38 -16.55 15.99 4294967295
-19.98 32.99 29.39 4294967295
14.53 7.15 76.58 4294967295
32.33 2.68 63.40 4294967295
12.38 -22.68 70.53 4294967295
-33.70 -1.69 61.48 4294967295
39.15 -8.16 40.75 4294967295
-22.20 26.81 59.72 4294967295
-9.68 32.42 61.34 4294967295
7.88 -15.95 75.83 4294967295
-5.50 -9.40 1.51 4294967295
13.59 21.69 9.26 4294967295
6.44 -34.33 59.49 4294967295
-36.66 9.14 26.87 4294967295
-21.16 5.20 73.54 4294967295
-16.27 24.97 66.68 4294967295
33.24 -0.25 62.25 4294967295
-30.01 12.40 63.36 4294967295
22.27 -21.45 14.62 4294967295
-3.90 12.14 77.91 4294967295
21.71 -26.76 19.69 4294967295
-6.32 29.07 66.74 4294967295
-11.38 -28.24 14.06 4294967295
-25.99 -15.87 65.94 4294967295
22.60 -32.98 38.72 4294967295
-28.72 -19.29 19.92 4294967295
13.29 -25.45 67.85 4294967295
17.20 18.66 70.92 4294967295
12.66 -7.05 2.72 4294967295
-31.28 -18.83 23.65 4294967295
37.00 15.17 41.04 4294967295
27.31 0.73 69.22 4294967295
31.71 0.69 15.63 4294967295
36.63 15.97 38.23 4294967295
-38.06 9.01 31.64 4294967295
-16.23 24.50 12.87 4294967295
-8.04 -5.99 1.28 4294967295
-17.44 -19.53 70.24 4294967295
7.81 -32.32 62.24 4294967295
-11.62 36.80 50.51 4294967295
31.98 -4.44 63.62 4294967295
29.31 15.42 62.43 4294967295
-16.87 -35.46 32.37 4294967295
37.18 -14.02 35.39 4294967295
-16.44 35.49 48.39 4294967295
-16.68 6.71 75.73 4294967295
27.39 -28.81 35.54 4294967295
-1.31 -36.87 24.53 4294967295
-31.78 3.08 64.10 4294967295
33.42 -21.59 44.08 4294967295
30.67 25.35 35.90 4294967295
-29.53 -8.71 14.46 4294967295
-16.69 15.63 7.18 4294967295
33.12 22.31 37.72 4294967295
-28.99 -17.32 61.43 4294967295
-34.17 19.31 47.71 4294967295
-24.93 26.58 23.51 4294967295
-9.22 37.07 51.87 4294967295
24.20 5.32 71.40 4294967295
-36.22 -16.84 37.84 4294967295
-4.19 -22.76 72.62 4294967295
-1.71 30.35 14.00 4294967295
16.30 -12.95 5.85 4294967295
-38.13 12.05 41.02 4294967295
27.07 -29.35 42.31 4294967295
-12.74 20.06 7.83 4294967295
36.61 7.64 25.82 4294967295
-36.27 4.53 23.75 4294967295
28.12 20.20 19.97 4294967295
6.48 26.59 69.17 4294967295
9.84 -8.23 77.89 4294967295
10.91 31.43 17.80 4294967295
27.73 -20.30 19.53 4294967295
-21.59 -0.85 73.67 4294967295
-14.28 36.88 46.03 4294967295
37.75 -10.97 32.59 4294967295
16.40 27.41 15.92 4294967295
13.03 33.50 57.56 4294967295
-32.05 23.61 36.11 4294967295
0.69 -39.42 33.22 4294967295
-28.09 2.20 68.39 4294967295
-11.56 -35.83 53.51 4294967295
-23.58 -32.29 41.13 4294967295
28.18 -1.44 68.35 4294967295
20.34 5.21 5.95 4294967295
-39.27 4.69 33.99 4294967295
-7.35 -29.89 65.55 4294967295
-17.63 -4.37 4.36 4294967295
35.03 -11.44 24.44 4294967295
-29.31 12.23 15.68 4294967295
-19.03 7.39 74.40 4294967295
23.98 17.11 12.95 4294967295
20.81 -25.14 16.87 4294967295
-12.20 22.02 8.91 4294967295
9.77 -4.90 78.48 4294967295
-35.56 -6.36 57.17 4294967295
-37.97 8.52 30.76 4294967295
-10.45 32.59 19.30 4294967295
33.28 7.69 60.81 4294967295
3.48 37.79 52.65 4294967295
-11.53 -14.22 75.56 4294967295
-29.72 9.48 65.04 4294967295
8.60 -17.31 4.98 4294967295
-10.89 -3.76 1.70 4294967295
6.58 -25.99 69.69 4294967295
22.92 17.65 12.37 4294967295
-29.12 1.62 12.62 4294967295
30.88 -19.25 56.62 4294967295
-0.94 21.12 6.05 4294967295
13.03 -35.84 52.08 4294967295
-39.86 -3.06 41.23 4294967295
-10.03 -36.10 54.01 4294967295
-26.70 -6.92 68.97 4294967295
15.70 26.71 14.69 4294967295
0.91 39.72 44.65 4294967295
-11.77 -33.91 57.65 4294967295
-25.84 28.54 29.16 4294967295
-0.39 39.71 44.82 4294967295
-15.93 22.66 11.14 4294967295
32.99 -13.43 21.79 4294967295
5.07 -16.98 75.86 4294967295
-27.50 9.64 12.60 4294967295
-28.89 23.72 54.23 4294967295
3.50 -34.29 60.30 4294967295
28.02 -21.34 21.04 4294967295
-21.01 31.28 26.58 4294967295
11.40 33.34 21.07 4294967295
18.61 -35.39 41.11 4294967295
14.58 2.17 2.81 4294967295
-21.69 13.53 70.77 4294967295
-19.00 -31.02 56.64 4294967295
-28.18 -25.14 26.81 4294967295
31.47 -2.70 64.54 4294967295
-13.03 31.54 19.13 4294967295
18.95 33.59 50.62 4294967295
-0.63 1.91 0.05 4294967295
20.21 -33.87 46.63 4294967295
-33.11 -21.67 34.19 4294967295
17.10 12.32 74.00 4294967295
3.91 17.93 4.46 4294967295
30.35 23.34 51.58 4294967295
-22.60 32.91 37.50 4294967295
-19.89 -14.51 8.47 4294967295
-37.64 -6.49 51.88 4294967295
13.90 31.41 19.50 4294967295
17.33 28.36 62.26 4294967295
33.97 -10.99 58.03 4294967295
-14.82 26.13 66.41 4294967295
4.94 21.56 73.33 4294967295
36.60 15.80 36.72 4294967295
9.87 -5.03 1.56 4294967295
-37.35 9.57 50.66 4294967295
13.61 -17.30 73.40 4294967295
0.17 3.81 0.18 4294967295
-11.83 -37.58 33.08 4294967295
37.44 2.75 53.82 4294967295
16.01 35.72 31.77 4294967295
23.70 28.99 25.93 4294967295
21.04 10.04 72.51 4294967295
-30.26 -3.31 14.05 4294967295
13.05 -36.23 50.81 4294967295
22.07 33.17 36.40 4294967295
-37.51 -6.75 27.85 4294967295
-28.44 25.08 27.28 4294967295
32.63 -13.01 20.87 4294967295
-19.54 -33.74 48.95 4294967295
-8.67 39.05 40.31 4294967295
2.30 -0.70 79.93 4294967295
-24.86 -29.44 29.25 4294967295
20.86 -33.95 43.47 4294967295
-14.46 37.30 39.73 4294967295
-11.02 -34.09 57.79 4294967295
8.91 -14.94 76.02 4294967295
13.46 3.54 77.50 4294967295
22.74 27.46 58.14 4294967295
-20.90 32.06 51.64 4294967295
-12.15 -33.41 21.67 4294967295
0.46 -31.41 15.24 4294967295
-12.67 29.90 63.36 4294967295
-37.02 -1.25 24.91 4294967295
-12.81 -3.35 77.75 4294967295
-1.45 20.14 5.47 4294967295
0.07 -20.30 5.53 4294967295
-23.91 -31.73 35.36 4294967295
-15.03 -19.06 71.79 4294967295
15.59 -29.12 62.56 4294967295
10.39 37.85 47.71 4294967295
3.64 4.10 0.38 4294967295
25.24 24.80 21.34 4294967295
-15.89 -36.46 35.76 4294967295
-26.72 -1.24 10.26 4294967295
34.71 -17.21 30.07 4294967295
12.55 -5.60 77.57 4294967295
-28.97 24.68 52.31 4294967295
27.91 -2.12 11.42 4294967295
23.64 30.23 51.27 4294967295
-37.99 4.09 28.17 4294967295
-15.23 -12.73 102.45 4294967295
15.57 9.81 92.16 4294967295
-8.70 -17.09 94.32 4294967295
-10.32 -17.11 99.16 4294967295
6.84 -7.23 82.65 4294967295
14.32 -10.99 91.38 4294967295
16.81 -5.61 109.28 4294967295
9.91 8.14 84.66 4294967295
-11.27 -11.55 88.19 4294967295
-15.69 -2.48 112.16 4294967295
-5.52 -7.45 82.28 4294967295
4.09 -14.20 86.52 4294967295
-3.34 1.98 119.62 4294967295
6.33 8.11 82.85 4294967295
-14.80 13.37 101.48 4294967295
7.01 -13.15 113.34 4294967295
-15.63 12.41 98.72 4294967295
1.16 -13.22 114.96 4294967295
-16.47 8.91 107.03 4294967295
7.57 17.67 105.53 4294967295
0.96 0.57 80.03 4294967295
3.65 15.71 111.83 4294967295
-4.59 16.98 109.52 4294967295
-9.88 11.11 113.38 4294967295
-2.20 19.19 105.17 4294967295
-6.29 3.62 81.36 4294967295
-4.37 19.50 99.13 4294967295
11.75 12.93 109.74 4294967295
7.15 -16.32 109.09 4294967295
-2.73 -12.11 84.32 4294967295
17.96 -3.70 107.98 4294967295
17.54 -6.08 92.56 4294967295
-9.22 -16.40 106.80 4294967295
12.07 15.90 98.76 4294967295
-3.73 11.00 83.72 4294967295
-19.70 2.41 102.49 4294967295
-14.63 -11.87 93.29 4294967295
2.31 -4.30 119.39 4294967295
-1.08 -19.97 100.17 4294967295
14.89 -11.45 93.13 4294967295
-11.55 -16.20 98.00 4294967295
18.51 0.42 107.56 4294967295
-4.66 -6.79 118.22 4294967295
-14.22 12.84 94.26 4294967295
9.66 -3.91 82.93 4294967295
-3.86 -19.11 95.52 4294967295
2.07 -10.06 117.16 4294967295
-17.73 9.26 100.24 4294967295
-0.25 -19.58 104.06 4294967295
-11.15 -12.00 111.48 4294967295
-9.63 -11.64 86.89 4294967295
3.46 18.26 107.38 4294967295
12.23 14.10 92.83 4294967295
10.73 13.75 90.22 4294967295
-18.83 -3.08 106.00 4294967295
7.46 -2.59 81.63 4294967295
-12.29 -6.89 114.20 4294967295
4.10 -13.78 113.91 4294967295
-7.40 -0.46 118.58 4294967295
12.90 -14.53 104.77 4294967295
10.49 -11.40 87.35 4294967295
10.27 17.16 100.00 4294967295
15.04 -9.62 91.00 4294967295
-11.70 -6.43 85.11 4294967295
-16.33 0.16 88.46 4294967295
-1.25 19.96 99.86 4294967295
14.47 -13.78 100.75 4294967295
14.53 -9.13 89.72 4294967295
2.48 8.34 81.99 4294967295
13.75 -12.12 108.00 4294967295
-13.19 -12.52 91.67 4294967295
5.88 -16.19 110.17 4294967295
6.28 -16.54 109.32 4294967295
-17.24 9.56 96.62 4294967295
-5.74 -6.91 82.13 4294967295
-12.57 -11.49 89.51 4294967295
5.89 18.77 103.63 4294967295
-11.81 -8.13 113.94 4294967295
12.21 -8.90 86.90 4294967295
-19.08 -1.41 94.16 4294967295
13.15 -13.53 93.38 4294967295
-13.83 6.16 113.07 4294967295
6.91 -17.35 92.83 4294967295
-4.91 -16.05 110.88 4294967295
-1.37 19.83 97.82 4294967295
-9.56 -16.61 105.71 4294967295
-14.59 -7.48 111.46 4294967295
-15.93 12.08 99.51 4294967295
15.81 6.66 110.29 4294967295
3.19 6.17 81.25 4294967295
-10.90 -16.60 97.63 4294967295
12.10 14.12 107.36 4294967295
2.57 9.22 82.44 4294967295
-5.44 16.67 90.39 4294967295
-10.98 12.59 89.01 4294967295
18.89 2.31 106.15 4294967295
0.91 10.77 83.17 4294967295
-2.10 -14.39 113.73 4294967295
18.09 1.51 108.39 4294967295
12.11 -10.12 112.29 4294967295
-6.92 7.76 82.91 4294967295
-2.55 0.82 119.82 4294967295
-10.37 -4.42 83.48 4294967295
-8.35 1.61 118.10 4294967295
17.70 7.31 105.78 4294967295
11.36 9.71 86.71 4294967295
-3.44 18.14 92.31 4294967295
-4.55 -14.18 113.36 4294967295
4.76 18.67 94.63 4294967295
-3.29 -18.13 107.78 4294967295
-3.35 -1.47 80.34 4294967295
-1.71 -8.88 82.16 4294967295
-5.44 12.17 114.90 4294967295
6.60 -18.83 98.66 4294967295
6.57 5.70 118.01 4294967295
13.55 -14.04 95.61 4294967295
-7.17 -18.67 100.06 4294967295
0.84 1.26 119.94 4294967295
-7.10 0.09 118.70 4294967295
1.73 -19.84 98.12 4294967295
18.90 5.38 96.29 4294967295
-5.87 -12.01 114.87 4294967295
-14.72 13.20 103.03 4294967295
-4.53 16.56 89.74 4294967295
-15.65 1.74 87.66 4294967295
18.79 -5.01 95.34 4294967295
-15.08 5.58 88.11 4294967295
-19.97 0.31 101.03 4294967295
0.44 19.97 101.02 4294967295
-18.07 6.95 105.02 4294967295
10.72 -13.93 90.46 4294967295
-8.95 -17.88 99.87 4294967295
14.01 6.15 87.12 4294967295
-17.45 -7.36 93.56 4294967295
6.07 -18.89 102.49 4294967295
10.44 -11.11 112.94 4294967295
9.60 -17.03 104.22 4294967295
7.84 0.48 118.39 4294967295
16.32 -4.00 110.84 4294967295
2.70 -13.06 114.90 4294967295
